# .PCD v0.7 - Point Cloud Data file format
VERSION 0.7
FIELDS x y z rgba
SIZE 4 4 4 4
TYPE F F F U
COUNT 1 1 1 1
WIDTH 1087
HEIGHT 1
VIEWPOINT 0 0 0 1 0 0 0
POINTS 1087
DATA ascii
-0.007072892 0.017668087 1.2229134 4278386945
0.0069019059 0.0096840523 1.2211177 4278846209
0.237359 0.0083079804 1.2234179 4280622869
0.25270134 0.0020613333 1.2028 4281741354
0.33796912 0.0054503609 1.2043413 4284638806
0.37297902 0.016972858 1.211121 4281873715
0.38252583 0.075605638 1.2234026 4281216042
0.38479626 0.12476677 1.2242268 4282794304
0.38777134 0.17617747 1.2256114 4282991168
0.40253678 0.19496876 1.2028 4282271295
0.39084449 0.22508731 1.2261087 4282794048
0.40312955 0.23266061 1.2033749 4282598203
0.39142346 0.27355918 1.2317026 4282793787
0.40353751 0.27559432 1.207661 4282794552
0.086247608 0.34316981 1.2239635 4278255873
0.12333854 0.34540096 1.2228907 4278255873
0.17575663 0.34446546 1.2289867 4278255873
0.22632809 0.34462956 1.225924 4278255873
0.27454343 0.34265545 1.2237597 4278255873
0.30192798 0.34273332 1.2036002 4278255876
0.39322823 0.3238641 1.236323 4282071345
0.40540898 0.32668492 1.2113543 4282005292
0.035861589 0.39526948 1.2302094 4278255873
0.066619202 0.39001787 1.223447 4278255873
0.14191158 0.35273489 1.2137144 4278255873
0.16009231 0.35147157 1.2233002 4278255873
0.24437779 0.35069016 1.2046667 4278255873
0.2616367 0.3509157 1.2038667 4278255873
0.33405969 0.39257556 1.2168375 4278518530
0.37853986 0.3837699 1.2293884 4279702799
0.40759259 0.37569052 1.2172515 4281215526
0.024855617 0.40309656 1.2216054 4278255873
0.39636898 0.41883352 1.232875 4278716422
0.41084218 0.42693588 1.2194062 4280294937
0.39958572 0.45808092 1.245 4279507726
0.41209516 0.47521356 1.2260305 4280558110
0.41324282 0.52312499 1.2268261 4280754459
0.40603203 0.55311817 1.2425001 4281344542
0.04813714 -0.51469713 1.296 4280164627
0.058451083 -0.50583464 1.2806048 4279703832
0.29903716 -0.50199616 1.261 4279370497
0.31576464 -0.50805765 1.2926297 4279901465
0.044331729 -0.46826294 1.2917336 4279635989
0.06042216 -0.47294545 1.27232 4280163104
0.29204133 -0.47700933 1.2550718 4279832329
0.30211508 -0.48452559 1.2571667 4279701520
0.04752 -0.44619426 1.296 4279702053
0.064720824 -0.44685772 1.2714092 4280491558
-0.05419546 -0.36421597 1.2863076 4278387201
-0.046939053 -0.35862246 1.2636 4278387201
0.24020116 -0.36013538 1.2570003 4280617473
0.27393124 -0.35881561 1.2643498 4279502337
0.33296284 -0.36241797 1.2748122 4280426006
0.23664095 -0.32105687 1.2557757 4281472002
0.27364978 -0.3251037 1.268689 4280355330
0.33439437 -0.32454073 1.2760179 4280951840
0.19528787 -0.25933701 1.2539999 4283050502
0.22568646 -0.27534905 1.2600425 4282064643
0.27444568 -0.27494255 1.2767544 4281472259
0.33861116 -0.275673 1.2764375 4281609515
0.18255377 -0.22135633 1.2557054 4283314184
0.2247126 -0.22536972 1.2688807 4282327045
0.27395219 -0.22537464 1.2859225 4281471747
0.34254196 -0.22528501 1.2759119 4283122751
0.35220608 -0.20481211 1.2576472 4282659114
0.14524168 -0.16296168 1.2547299 4282395145
0.1764594 -0.17430797 1.2621223 4283314697
0.22525337 -0.17516212 1.2783802 4282261254
0.26895067 -0.17607445 1.2925292 4281866756
0.3435955 -0.17657261 1.2818912 4282660661
0.35322875 -0.17109391 1.2598186 4282726965
0.093078904 -0.10993626 1.2553333 4278911489
0.14139095 -0.12293471 1.2575809 4281999876
0.17495281 -0.12473828 1.2703174 4283313928
0.22433919 -0.12552981 1.2869043 4282064132
0.25838855 -0.13236067 1.2958552 4281603586
0.3457579 -0.12532644 1.2876639 4283385925
0.35502347 -0.12540218 1.2645346 4283846474
0.094046183 -0.071837135 1.2574722 4279042561
0.12873909 -0.07218679 1.2596925 4282129926
0.17486237 -0.075178802 1.279156 4283116809
0.21745995 -0.078602493 1.2935227 4282064645
0.34706292 -0.080576397 1.2913238 4283780942
0.35609415 -0.073477492 1.2699616 4283781201
-0.020783283 -0.0020336509 1.2828889 4279042561
0.095076159 -0.026066218 1.2618324 4278846209
0.12525819 -0.025468973 1.2661679 4281670148
0.17268693 -0.025587386 1.2859337 4281605381
0.20896375 -0.041611094 1.2935516 4281670148
0.29565793 -0.021275807 1.272 4280028687
0.32343504 -0.031577218 1.2740715 4279044364
0.35847208 -0.036076453 1.2703867 4282335044
-0.025262158 0.0095050512 1.2766523 4278321409
0.095903642 0.0033661472 1.2544545 4278518273
0.12532993 0.0048879422 1.2697403 4279896577
0.16929387 0.0044400189 1.289655 4279961602
0.20118856 0.0037028573 1.296 4278583553
0.3668119 0.049088668 1.2697003 4278780676
0.09565413 0.085883215 1.2844002 4278255873
0.1259263 0.082734898 1.2840129 4279239681
0.15765674 0.076720722 1.2949998 4279502083
0.36519128 0.074407257 1.2743586 4280360218
0.096584305 0.12723143 1.2919382 4278386945
0.12113881 0.12422483 1.2905816 4279895553
0.36798668 0.12467707 1.2733219 4281872946
0.097234279 0.15771428 1.2959998 4278321665
0.11220013 0.15950163 1.2946064 4279632641
0.37095115 0.17456372 1.2750514 4282662203
0.37327379 0.22475848 1.2755991 4282727740
0.375754 0.27520224 1.2760286 4282596408
0.095823675 0.33654201 1.2644762 4278255873
0.12598982 0.34073842 1.2733251 4278255873
0.1754294 0.33992866 1.2727376 4278255873
0.22765374 0.33899015 1.2797142 4278255873
0.26854283 0.33626917 1.2679906 4278255873
0.37907609 0.32495007 1.2774467 4282136120
-0.0040688724 0.39420056 1.2873684 4278255873
0.024584174 0.39030695 1.2761449 4278321409
0.065549701 0.3856495 1.2751004 4278255873
0.34083718 0.38697165 1.2711977 4278518529
0.38062412 0.37782094 1.2738382 4280492315
-0.0012209525 0.40169334 1.2820001 4278255873
0.0080761043 0.40358493 1.2640001 4278255873
0.39199954 0.43078679 1.2638651 4278649605
0.39251843 0.47444201 1.2772961 4279241995
0.40099463 0.48127395 1.2566252 4280032273
0.39392155 0.52570909 1.2831013 4280359195
0.40200901 0.52355617 1.2624726 4280688406
0.39352238 0.56241244 1.284153 4280490778
0.4024666 0.55773622 1.2628636 4280688919
-0.72564822 -0.52137774 1.341964 4279633669
-0.6965915 -0.52148151 1.3470001 4280816909
0.039965779 -0.51608574 1.3250999 4278978572
0.050800957 -0.50677055 1.3010001 4279702044
0.32130939 -0.51335049 1.3016822 4280491538
-0.75523835 -0.46736318 1.334843 4281080854
-0.73285186 -0.4728373 1.3422731 4280356874
0.042164054 -0.48773515 1.3055836 4279109901
-0.75344992 -0.42283258 1.3316873 4280621067
-0.74202317 -0.43213221 1.3357881 4280227086
-0.66775072 -0.40244454 1.3457501 4279634963
0.044605717 -0.44729623 1.3010001 4278781201
0.051626991 -0.44647017 1.3010001 4280558395
-0.75710744 -0.39362478 1.3290002 4280291601
-0.66586465 -0.39542401 1.3436667 4279700745
-0.070708677 -0.37659684 1.3309556 4278649089
0.31811544 -0.36208159 1.3092929 4280227099
-0.7152732 -0.30222741 1.3222501 4278452481
0.31967074 -0.32464984 1.3125876 4280293658
-0.71300143 -0.2930035 1.3203751 4278452481
0.31960484 -0.27409381 1.3149257 4280556576
0.29489335 -0.20279081 1.3010001 4281667847
0.32190955 -0.22488101 1.3185852 4281411879
0.29387131 -0.17274801 1.3049105 4281865223
0.32428756 -0.17519999 1.3254244 4281806383
0.24780954 -0.10779715 1.3010001 4280093697
0.28004259 -0.12286981 1.3083736 4281209859
0.32841665 -0.12555638 1.3224434 4282069807
0.23811913 -0.069100454 1.3045659 4281209345
0.27428037 -0.074976064 1.3148203 4280881154
0.33295685 -0.073771514 1.3254389 4282662977
-0.050544579 -0.0079537146 1.3470001 4278387457
-0.037512314 -0.0039513553 1.3140002 4278452739
0.19552174 -0.0022302859 1.3010001 4278518273
0.23017868 -0.035411034 1.3087543 4279963138
0.27489299 -0.043485325 1.3181427 4279043330
0.32470691 -0.04545195 1.3089478 4278585104
0.35065052 -0.045844767 1.3010001 4282602060
-0.051057719 0.0064142859 1.3470001 4278255873
-0.042692836 0.0072022569 1.3188889 4278255873
0.1939798 0.0039924872 1.3010001 4278911489
0.20816003 0.0024780955 1.3010001 4278452481
0.18106234 0.08226373 1.3093878 4279961601
0.2247642 0.078722522 1.3235421 4279436545
0.27257451 0.078437991 1.3405036 4278845953
0.34506017 0.075316772 1.3301051 4279834132
0.35407794 0.079632029 1.3093724 4280098330
0.093919814 0.13307373 1.3010002 4278256132
0.14415529 0.13168359 1.3041815 4280552961
0.17423563 0.12491315 1.3142377 4280618241
0.22460161 0.12490992 1.3328663 4280224001
0.25743273 0.12034012 1.3461864 4279501570
0.34587011 0.12360314 1.3345299 4280885538
0.35548222 0.12701948 1.3120316 4281214501
0.093838707 0.18270278 1.3089999 4278255873
0.12700972 0.17837411 1.3052262 4279567617
0.1755702 0.17495449 1.3240047 4280683521
0.22252537 0.17357722 1.3400073 4280157953
0.25196826 0.15914974 1.3470001 4279173889
0.34763843 0.17428994 1.3376199 4281873715
0.35677314 0.1763811 1.3146302 4282399287
0.095437571 0.21784469 1.311463 4278255873
0.12394363 0.2244724 1.3119338 4279436290
0.17499623 0.22506469 1.3323714 4280486402
0.21237403 0.21942522 1.3430628 4280027393
0.34804952 0.22239678 1.3396665 4282464312
0.35818246 0.22570197 1.3184885 4282596154
0.096705385 0.27459523 1.3254236 4278255873
0.12438089 0.27537882 1.3216938 4279042817
0.17231566 0.27319682 1.3391769 4279961345
0.20535718 0.25951749 1.3460625 4279896321
0.34924826 0.25864634 1.34 4282661440
0.35995334 0.27562931 1.3226212 4282530361
0.098186567 0.32314077 1.3260002 4278255873
0.12497548 0.32108262 1.3258861 4278714625
0.17017926 0.32601285 1.3283914 4278714881
0.21616113 0.33220947 1.3115954 4278255873
0.36220902 0.32541621 1.3246633 4282267189
-0.010735443 0.38444099 1.3255243 4278321409
0.024324929 0.38151214 1.323589 4278321409
0.063430823 0.37944224 1.3224726 4278255873
0.34678286 0.38361907 1.3145715 4278518529
0.36483723 0.37283957 1.3241278 4280689438
0.37861893 0.48374915 1.3201731 4278452738
0.37873489 0.52533567 1.3245134 4279373068
0.37975946 0.57155085 1.3279206 4279965717
0.37202859 0.60166001 1.3470001 4278916629
-0.71135628 -0.55169052 1.363 4280028426
-0.69837523 -0.55169052 1.363 4280752138
0.018538453 -0.55379963 1.3911251 4278256133
-0.77506524 -0.51320112 1.3763945 4280029715
-0.71065825 -0.52499479 1.3565046 4279765511
-0.69492793 -0.52583396 1.35992 4280422409
0.024007585 -0.52553731 1.3792287 4278518786
-0.76399314 -0.49304149 1.3631212 4280358417
-0.71598035 -0.47262433 1.3573675 4279896581
-0.6950475 -0.47340932 1.362406 4281012490
-0.76038021 -0.40933573 1.3695316 4279307269
-0.72140652 -0.42531535 1.3609098 4279765509
-0.69500393 -0.42337218 1.3709725 4280816136
-0.76652932 -0.3798565 1.3697045 4279109381
-0.72263008 -0.37421665 1.3657823 4279633670
-0.69080728 -0.37829542 1.3737904 4280882699
-0.087086737 -0.37950122 1.3660243 4278518017
-0.71769571 -0.3242375 1.3711582 4279765254
-0.69010913 -0.3243719 1.3785435 4280947722
-0.71644109 -0.27526778 1.3798678 4279831303
-0.68927562 -0.27581686 1.388299 4281079051
-0.71785033 -0.22532485 1.3858815 4279699722
-0.68922472 -0.22917989 1.3928239 4280881418
-0.722655 -0.17886779 1.3895527 4279436551
-0.68364108 -0.19544002 1.396 4281013512
-0.11843684 -0.15782958 1.3945957 4278255874
-0.099714287 -0.15023619 1.396 4278255873
0.31908014 -0.1548415 1.3532857 4279900705
-0.72413325 -0.13041234 1.3902813 4278649346
-0.16864148 -0.12162548 1.3889725 4278256130
-0.12417679 -0.12535878 1.3949369 4278255874
-0.099714287 -0.13375011 1.396 4278255873
0.32060918 -0.12216903 1.3571043 4280753442
-0.72904956 -0.095058419 1.3926668 4278649090
-0.1645571 -0.077620059 1.3877398 4278518788
-0.13376966 -0.079035647 1.3928109 4278255874
0.32060367 -0.077074811 1.3586996 4280754726
-0.23645115 -0.0038778672 1.3938398 4278321665
-0.16432655 -0.024466896 1.388356 4278585355
-0.1401287 -0.026307231 1.3934147 4278255874
-0.062224217 -0.0060256333 1.3756 4278255873
-0.22060914 0.026343586 1.39007 4278256130
-0.17233512 0.027886523 1.391057 4278255874
-0.14310214 0.030579044 1.396 4278255873
-0.061872464 0.0039030949 1.3689166 4278255873
-0.21317799 0.072361171 1.3887259 4278256129
-0.17742124 0.07453303 1.3880539 4278255873
0.29600507 0.082325496 1.3522307 4279042817
0.32488203 0.078185134 1.3711071 4279176204
-0.21059602 0.1236995 1.3912404 4278255873
-0.1796169 0.12420855 1.3894119 4278255874
0.28074077 0.12682192 1.3538102 4279174145
0.32775921 0.12368391 1.3736782 4279834130
-0.21513668 0.16947329 1.3960017 4278255873
-0.18437009 0.1738077 1.3894037 4278255873
0.24409577 0.19082518 1.3520002 4279960578
0.27566072 0.17491741 1.3567512 4279239681
0.33146676 0.17458966 1.3732696 4280360476
-0.20619893 0.2256304 1.3960011 4278256130
-0.19252013 0.21384192 1.3929695 4278255873
0.23433562 0.22947313 1.3545563 4279895297
0.27534008 0.22470719 1.3657713 4279173889
0.33218589 0.22542728 1.3754009 4281215529
0.19469462 0.28845972 1.3520004 4279830017
0.22673269 0.27660581 1.357918 4279698433
0.2745004 0.27539715 1.3731719 4278911745
0.33399612 0.27374274 1.3762848 4281347114
0.35165796 0.28979531 1.3562106 4282398269
0.18801256 0.3162252 1.3520558 4279371009
0.22697555 0.31958559 1.3635447 4279108353
0.27575445 0.32431218 1.3800662 4278911489
0.33965862 0.32414466 1.380785 4281610286
0.35236424 0.32669327 1.3566604 4282201653
-0.20341712 0.39619812 1.396 4278256129
-0.17944902 0.38977373 1.3883824 4278255873
-0.022283623 0.37593392 1.3793817 4278255873
0.024905102 0.37415171 1.3786354 4278255873
0.070448302 0.37337825 1.3824375 4278255873
0.28831947 0.35501921 1.3937739 4278321409
0.34247822 0.36717308 1.3803147 4280295712
0.35292828 0.36642981 1.3576833 4281281065
-0.20182167 0.41419098 1.396 4278255873
-0.17570934 0.42483371 1.3894999 4278255873
-0.1449181 0.44672 1.396 4278255873
-0.22012033 0.48828214 1.3892068 4278255873
-0.1741823 0.47518763 1.3892583 4278255873
-0.14375955 0.46767679 1.3951925 4278255873
0.36312407 0.49449405 1.3614196 4278256130
-0.22059757 0.52486771 1.3849324 4278255873
-0.1755691 0.52464128 1.3851014 4278255873
-0.14609383 0.52479893 1.3929998 4278255873
0.12706295 0.54099983 1.363933 4278452737
0.17765903 0.54078501 1.3870596 4278386945
0.21139428 0.53828561 1.396 4278386945
0.34966478 0.50521904 1.396 4278649089
0.36038253 0.52497566 1.3737882 4278452994
-0.25296685 0.59165573 1.3946363 4278255873
-0.22279434 0.57523602 1.3838317 4278584838
-0.17505802 0.57445008 1.3840048 4278255873
-0.14689131 0.57232738 1.3941634 4278255873
0.099714287 0.59828568 1.396 4278650887
0.1242203 0.5746631 1.3721393 4278518273
0.17285123 0.57278031 1.3870765 4278518017
0.20350294 0.56659162 1.396 4278386945
0.36313722 0.57538027 1.375577 4279308042
-0.25749436 0.61169523 1.3924515 4278255873
-0.22534068 0.6084072 1.3851774 4278255873
-0.17322287 0.60834479 1.384887 4278255873
-0.14658137 0.61291379 1.3955715 4278255873
0.098925337 0.61159474 1.3924001 4279308293
0.12497979 0.60657156 1.3775654 4278386945
0.16745397 0.61051899 1.393144 4278386945
0.36200145 0.60864431 1.3793077 4279832337
-0.81019813 -0.55655432 1.4370002 4279372291
-0.12113994 -0.56283468 1.4420105 4280421638
-0.094288118 -0.56987494 1.44828 4280684037
-0.0027585716 -0.56425548 1.4475 4278651400
0.0067054885 -0.56108767 1.4305241 4278519813
-0.80251908 -0.54629809 1.4210001 4279963401
-0.79080999 -0.536672 1.4111203 4279766290
-0.12399741 -0.53277755 1.4462662 4280946184
-0.097980008 -0.54786003 1.4490001 4280554498
-0.0021644898 -0.54387718 1.4447144 4278519303
0.0094642555 -0.53258103 1.4260161 4278977545
-0.70873284 -0.46019462 1.4146801 4279699720
-0.69814003 -0.45158002 1.4070001 4278322955
0.011331778 -0.48028272 1.4334214 4278912010
-0.70607579 -0.4276385 1.4154073 4279897103
-0.69627994 -0.43122521 1.4055716 4279175188
-0.60415149 -0.40230384 1.4450001 4282467666
-0.10764001 -0.40434003 1.4490001 4278518017
-0.80461228 -0.36485881 1.4151429 4278386945
-0.79427385 -0.36712077 1.4074444 4278386945
-0.70226693 -0.38406795 1.4171201 4279634182
-0.67489552 -0.38481161 1.4239901 4279502858
-0.62301224 -0.38657451 1.4428259 4279765514
-0.58783776 -0.39432949 1.4442 4280881941
-0.10758565 -0.38853911 1.4313751 4279698693
-0.090796195 -0.37920761 1.4020003 4278977281
-0.69154763 -0.30846766 1.4130001 4279896322
-0.68581563 -0.25641948 1.4031111 4280094722
-0.70449626 -0.20774136 1.4025265 4278977795
-0.68930763 -0.2205577 1.4062617 4280881930
-0.21087053 -0.20469086 1.44324 4278321409
-0.17905813 -0.20381261 1.4318749 4278386945
-0.12558001 -0.2001 1.4490001 4278255873
-0.81666988 -0.16545506 1.4405175 4283189837
-0.70903367 -0.17165187 1.4052933 4279699463
-0.68835515 -0.17398854 1.4083577 4280881673
-0.25735831 -0.1558163 1.4427001 4278386945
-0.21773116 -0.1712755 1.434988 4278255873
-0.17478526 -0.17463614 1.4205929 4278255873
-0.12724765 -0.17510824 1.4119056 4278255873
-0.095148601 -0.16602027 1.4243095 4278255873
-0.81621349 -0.1295162 1.4417446 4280879627
-0.71274686 -0.12267943 1.4077108 4279568389
-0.68924999 -0.12438694 1.4166124 4280684296
-0.26638338 -0.12333912 1.4440697 4278321667
-0.22485085 -0.12511614 1.4192016 4278256130
-0.18708637 -0.13065805 1.4031626 4278321666
-0.12533526 -0.12380625 1.4031309 4278255873
-0.090395108 -0.12389032 1.412196 4278255873
-0.81713945 -0.086443037 1.4445794 4279438862
-0.71557653 -0.074252807 1.415521 4279305732
-0.6905393 -0.077504516 1.4262246 4280749834
-0.26809895 -0.074561946 1.4394068 4278782478
-0.22597928 -0.074958034 1.4206669 4279176978
-0.1891982 -0.071896367 1.4043384 4279176459
-0.11122284 -0.069291174 1.4081818 4278255874
-0.093683995 -0.079133354 1.4289069 4278255873
-0.81352872 -0.014561252 1.4426252 4280687131
-0.77613378 -0.0032942868 1.4349545 4280224773
-0.71698451 -0.024428247 1.4249007 4279174402
-0.69066554 -0.025750464 1.437047 4280552966
-0.30360001 -0.016560001 1.4490001 4278321409
-0.27215862 -0.025505789 1.4362741 4278255874
-0.2242035 -0.025838191 1.4136394 4278256132
-0.18978344 -0.025936641 1.4034168 4278520076
-0.11816684 -0.024694409 1.4089031 4278255874
-0.090429194 -0.02257704 1.4331259 4278255873
-0.80307287 0.0060614292 1.416 4279895810
-0.77542686 0.0072529088 1.425429 4279371267
-0.72016084 0.023507433 1.433871 4279173891
-0.69380301 0.022695711 1.4440198 4280224772
-0.30629656 0.026314812 1.4426665 4278255873
-0.27485007 0.025598746 1.4205772 4278256130
-0.23125596 0.021713827 1.4024906 4278256130
-0.18500972 0.01296765 1.4020003 4278255873
-0.12524012 0.023495205 1.4116396 4278255873
-0.7196303 0.073140822 1.4398043 4279108099
-0.69012547 0.054823637 1.4490002 4280158468
-0.30931485 0.076942541 1.4396132 4278584068
-0.27507228 0.074974671 1.4208224 4278256131
-0.23705988 0.078038394 1.4041939 4278256130
-0.1556699 0.080738038 1.4041595 4278255875
-0.13101147 0.074533612 1.4192873 4278255873
0.32446286 0.060085718 1.4020001 4278255876
-0.71803802 0.11790957 1.4417645 4278845955
-0.31113645 0.12323386 1.445399 4278321411
-0.27488694 0.12476911 1.4259659 4278256130
-0.23498379 0.12519491 1.4045607 4278256130
-0.15586467 0.12790401 1.4038422 4278255875
-0.13307588 0.12331423 1.4222622 4278255873
0.32198316 0.13600354 1.4020003 4279569428
-0.30490226 0.17027465 1.4463463 4278255874
-0.27413255 0.17514016 1.4260991 4278256131
-0.22802451 0.17621391 1.4039966 4278255873
-0.16107228 0.17766087 1.4045507 4278255873
-0.13687013 0.17512299 1.4240346 4278255873
0.32222468 0.17665534 1.404505 4279242512
-0.30360001 0.22977002 1.4490001 4278255873
-0.27456933 0.22563 1.4316621 4278255875
-0.22888215 0.22569761 1.4088827 4278255874
-0.17118892 0.22755335 1.4070936 4278255873
-0.13978913 0.22146545 1.4214832 4278255873
0.32401648 0.22588144 1.4101366 4279833115
-0.71600288 0.27348286 1.4430001 4278255874
-0.27030182 0.27309257 1.4400141 4278255873
-0.22485195 0.27607259 1.4196857 4278255873
-0.17391755 0.27444601 1.410538 4278255873
-0.13836557 0.27802679 1.4244205 4278255873
0.32539362 0.27542913 1.4140965 4279964952
-0.3067455 0.30984005 1.447 4278255873
-0.27329627 0.32216099 1.4373513 4278255873
-0.2252045 0.3240138 1.4228266 4278255873
-0.17487749 0.3251963 1.4195281 4278255873
-0.13193516 0.32592508 1.4260169 4278255873
0.32435369 0.32606581 1.4175867 4279702294
-0.30715457 0.38108921 1.4490002 4278255873
-0.27376702 0.37535152 1.4364399 4278255873
-0.22460432 0.37370136 1.4174211 4278255873
-0.17278093 0.36958349 1.413631 4278255873
-0.12939087 0.37527663 1.4179798 4278255873
-0.056433924 0.37301138 1.4377694 4278255873
-0.027354237 0.36792418 1.4280833 4278321409
0.025769792 0.3674584 1.427279 4278321409
0.07555043 0.365962 1.4286224 4278255873
0.10147429 0.36548001 1.4322 4278255873
0.28364271 0.36146805 1.4020002 4278255873
0.32717726 0.36285138 1.4204879 4279439632
-0.3039656 0.41386575 1.4487391 4278255873
-0.27356845 0.42313531 1.4373341 4278255873
-0.22541876 0.42516935 1.4113953 4278255873
-0.16767912 0.42715961 1.4047856 4278255873
-0.12827848 0.42489138 1.4102095 4278255873
-0.35259002 0.47679001 1.4490002 4278255873
-0.32432339 0.47744995 1.4450092 4278518791
-0.27444956 0.47287962 1.4226694 4278321411
-0.22768116 0.46802357 1.4090339 4278255873
-0.17432283 0.47761261 1.4020003 4278255873
-0.12586246 0.4770585 1.4111211 4278255873
-0.35190001 0.53406006 1.4490001 4278255873
-0.32438517 0.52566403 1.4428233 4278452741
-0.27562901 0.52594578 1.4171631 4278255874
-0.24716733 0.52356172 1.4020003 4278255873
-0.15507838 0.5043385 1.4020003 4278255873
-0.13133802 0.52497292 1.4131728 4278255873
0.22845016 0.54051268 1.4028683 4278386945
0.27748212 0.53528684 1.418453 4278255873
0.331296 0.53097808 1.4262769 4278321409
0.35116765 0.52875435 1.4020003 4278583553
-0.35190004 0.5876829 1.4490002 4278386945
-0.32492596 0.57567257 1.4423089 4278913807
-0.27553749 0.57498378 1.4144428 4279045135
-0.24682517 0.56315213 1.4022177 4279505691
-0.13340315 0.57338929 1.4144987 4278255873
0.096063651 0.58614016 1.4347022 4279176460
0.10146968 0.58266103 1.416389 4279308553
0.19360954 0.59428781 1.4020003 4278321409
0.22685438 0.57537001 1.4074044 4278321409
0.27386457 0.57483178 1.423957 4278255873
0.33112058 0.57297635 1.4367083 4278321409
0.35250646 0.58080781 1.4081819 4278650118
-0.32595843 0.62273544 1.4432107 4278255873
-0.28292376 0.61542737 1.4149393 4278255873
-0.13397209 0.61276507 1.410768 4278255873
0.092054017 0.61803043 1.434425 4279569672
0.19065833 0.61387211 1.4030716 4278255873
0.22534943 0.6156503 1.4137437 4278255873
0.27557001 0.61958605 1.4304051 4278255873
0.32879555 0.62054408 1.4417995 4278649859
0.35261947 0.61998105 1.4165963 4279438859
-0.82503456 -0.58048135 1.4642774 4278452995
-0.25398973 -0.57849979 1.4982504 4278912003
-0.22885311 -0.58055741 1.4974782 4279896068
-0.17593868 -0.5710367 1.4848217 4280289282
-0.14785713 -0.56453443 1.4600002 4279371009
-0.072186194 -0.56545198 1.4574313 4280225027
-0.027651649 -0.56711006 1.4620625 4279108611
-0.25268856 -0.53535712 1.4990001 4279831043
-0.2471209 -0.5414958 1.4990003 4279961354
-0.17130975 -0.52836466 1.4915124 4280485890
-0.1238666 -0.51755792 1.457744 4280618245
-0.074553683 -0.5247696 1.4613514 4280553477
-0.025910495 -0.52483314 1.4696761 4279371267
0.0058300574 -0.51956165 1.45836 4278781194
-0.16365586 -0.4769288 1.4961405 4280749059
-0.12426756 -0.47468537 1.4614483 4281013255
-0.07555493 -0.47477055 1.4699081 4280817413
-0.027505163 -0.47988671 1.4785559 4279568387
0.0034311281 -0.47865427 1.4572107 4278912776
-0.52115989 -0.40180671 1.4781113 4280355102
-0.47365749 -0.40374532 1.4963559 4280946699
-0.43893644 -0.40190721 1.4958891 4281341458
-0.15613467 -0.43921465 1.4966158 4280749825
-0.12560682 -0.42678314 1.4676646 4279962117
-0.081108056 -0.43887556 1.4736006 4279240963
-0.045246191 -0.44888237 1.4845001 4279108865
-0.70948577 -0.38107142 1.455 4278321665
-0.65258002 -0.37986001 1.4610001 4279042822
-0.62280703 -0.38180989 1.4578239 4278649859
-0.57412678 -0.38709858 1.4669175 4279371015
-0.52508885 -0.38834956 1.4767613 4279568392
-0.47591618 -0.39454687 1.4975998 4279568393
-0.44379395 -0.39750969 1.4968464 4280421903
-0.12276427 -0.37451831 1.4792122 4281869075
-0.075245619 -0.37185541 1.4841957 4282067221
-0.036284823 -0.37631515 1.4944507 4280685573
-0.12147943 -0.32600608 1.4839741 4281803542
-0.076770045 -0.32597816 1.4920298 4282264085
-0.045953784 -0.34547013 1.4985336 4280948487
-0.1196591 -0.27548301 1.4894006 4281869079
-0.088314354 -0.28429097 1.4976628 4282330648
-0.84159642 -0.20208669 1.4922001 4279503625
-0.25547662 -0.20368418 1.4722667 4279763457
-0.23536888 -0.20595486 1.4626499 4278321409
-0.12077136 -0.22802944 1.4937395 4281080850
-0.82475632 -0.17677473 1.4682629 4280491048
-0.26446626 -0.17731078 1.4708606 4279369986
-0.23785439 -0.18433793 1.4600003 4278255873
-0.10793275 -0.19745238 1.4626253 4278255876
-0.097048104 -0.19272096 1.488 4278386947
-0.82259059 -0.12677135 1.4689542 4280225034
-0.30070001 -0.10392857 1.455 4279634447
-0.28600755 -0.12401196 1.4550014 4278453251
-0.81818211 -0.071864478 1.4654311 4281872942
-0.30069998 -0.087300003 1.455 4280030482
-0.29108158 -0.085615426 1.4550011 4278716167
-0.092842855 -0.059585717 1.455 4278255873
-0.8141818 -0.028191527 1.4594851 4282003763
-0.79694986 -0.0085579595 1.4618572 4279896070
-0.70400643 -0.018174643 1.4963751 4279042822
-0.67781371 -0.01019032 1.480903 4280027141
-0.6274001 -0.0077204495 1.4881506 4280290564
-0.58606625 -0.019929562 1.4990004 4281476894
-0.30609381 -0.013521867 1.4580003 4278321409
-0.29608095 -0.02392667 1.4550005 4278386945
-0.091457143 -0.0097000003 1.455 4278255873
-0.70532858 0.045728575 1.455 4278780673
-0.68203497 0.015820215 1.4689994 4279371012
-0.62515646 0.0027952108 1.4887431 4278452481
-0.59677577 0.0028452384 1.4955001 4278452481
-0.31127104 0.017048571 1.4562857 4278255873
-0.7516458 0.078234285 1.467 4278386945
-0.71633959 0.078152142 1.4575913 4278714881
-0.68857932 0.077904746 1.459309 4280157702
-0.32056192 0.083604775 1.455 4278452997
-0.1148011 0.080904394 1.455 4278255873
-0.71178263 0.13313504 1.458358 4278911490
-0.68925655 0.12327473 1.4632127 4280026628
-0.32510772 0.14628178 1.4649231 4278255873
-0.71566683 0.17489341 1.463738 4278911490
-0.6882745 0.17456503 1.4769214 4279895555
-0.32826078 0.17839366 1.4751134 4278386946
-0.1261 0.18568571 1.455 4278255873
-0.71445394 0.2244833 1.4690393 4278583553
-0.68784499 0.22410148 1.480581 4279436292
-0.35262191 0.21342906 1.4990001 4278583553
-0.32394427 0.22339515 1.4712439 4278255874
-0.71505469 0.27464753 1.4775816 4278518018
-0.6869362 0.27453145 1.4846601 4279239428
-0.35370785 0.29345217 1.495231 4278255873
-0.32424355 0.27729896 1.4763149 4278255873
-0.29263332 0.28465676 1.4557377 4278255874
-0.71506393 0.32501158 1.4859107 4278583554
-0.6928333 0.32065871 1.4965148 4279042818
-0.35911804 0.32775018 1.4950311 4278255873
-0.32592139 0.32647923 1.4700682 4278255873
-0.29433596 0.33015931 1.4550004 4278255873
0.10381008 0.34022015 1.4763684 4278255873
-0.85286093 0.37915111 1.4966668 4279699713
-0.82427609 0.3819828 1.4849157 4279764996
-0.7803182 0.38305238 1.4892271 4279896579
-0.71845305 0.37487754 1.4931728 4278780418
-0.69596434 0.38046047 1.4990001 4278518017
-0.41102722 0.379343 1.4977953 4278255873
-0.37294224 0.37491715 1.4832802 4278255873
-0.32682097 0.37284595 1.4622709 4278255873
-0.29575104 0.3561286 1.455 4278255873
-0.066531494 0.36287391 1.4783338 4278255873
-0.024414446 0.35882202 1.472178 4278321409
0.024107115 0.36044478 1.4791458 4278321409
0.076726303 0.35839432 1.4750845 4278255873
0.10341313 0.35561135 1.4767333 4278255873
-0.85115051 0.40212953 1.4920001 4278321938
-0.84112316 0.40051237 1.4860001 4278452755
-0.7246592 0.41542274 1.4965545 4278386945
-0.41407248 0.42811775 1.4989977 4278255874
-0.37541935 0.42626894 1.4904723 4278255873
-0.32739466 0.42618221 1.4670782 4278255873
-0.29367906 0.44426 1.455 4278255873
-0.72506231 0.45504162 1.4905556 4278452481
-0.41907001 0.4747462 1.4930141 4278255873
-0.37564355 0.47205397 1.4679022 4278255874
-0.33051297 0.45762101 1.4608908 4278386947
-0.29238573 0.45174283 1.455 4278255873
-0.42291221 0.52650237 1.4861437 4278386947
-0.37522274 0.5238899 1.4644078 4278716426
-0.33367997 0.52380002 1.455 4278255877
-0.11778571 0.53627145 1.455 4278255873
0.32952991 0.54341388 1.4582728 4278255873
-0.41932482 0.57403404 1.4847594 4278255873
-0.37642375 0.57606572 1.4686043 4278387205
-0.34079713 0.56725305 1.4562857 4279044879
-0.12067762 0.56695241 1.4735 4278255873
0.083995871 0.58907688 1.4764935 4279044361
0.32812959 0.57725716 1.4596243 4278255873
-0.41715619 0.62613136 1.4861586 4278255873
-0.37570703 0.62678939 1.4703897 4278255873
-0.34781429 0.6138714 1.455 4278255873
-0.12682953 0.6380108 1.4693637 4278255873
0.075675234 0.62610811 1.4749819 4278846982
0.32941052 0.62670386 1.4654015 4278321409
-0.41953883 0.65891069 1.4888331 4278255873
-0.38410789 0.65516883 1.4730879 4278255873
-0.12913334 0.65986103 1.4900001 4278255873
0.068678103 0.6531139 1.4791111 4278255873
0.3284663 0.65520304 1.4731599 4278321409
-0.75693935 -0.60632509 1.5178071 4279570964
-0.7250396 -0.60842746 1.5247108 4282002746
-0.67684036 -0.61183089 1.5406411 4282529599
-0.64324057 -0.61274803 1.5460005 4282596418
-0.27245086 -0.60475922 1.5255626 4278649090
-0.22948572 -0.60096574 1.506 4278452481
-0.76046979 -0.57667077 1.5312797 4279964953
-0.72366089 -0.57437307 1.5292941 4282004028
-0.67776817 -0.5782603 1.543089 4282464070
-0.64761031 -0.57570094 1.5460005 4283254348
-0.26634258 -0.57473117 1.5211664 4278977541
-0.22364648 -0.56951064 1.5099872 4279567873
-0.7554763 -0.5270412 1.5297095 4279504401
-0.72514188 -0.52378988 1.5310773 4280753966
-0.68266308 -0.53109151 1.5445603 4281211956
-0.64696425 -0.52799588 1.5460001 4282133812
-0.26136574 -0.52611327 1.5195818 4279634952
-0.22576487 -0.52462864 1.5149937 4280027394
-0.18925019 -0.51188886 1.5059988 4280552193
-0.75400811 -0.47918978 1.5326474 4279108871
-0.7257672 -0.47561476 1.5375541 4279964701
-0.69236231 -0.49320495 1.5440402 4279634983
-0.25936306 -0.47584483 1.5244478 4279241226
-0.22592553 -0.47485581 1.5217313 4280093442
-0.18237473 -0.47411987 1.507975 4280617729
-0.75360411 -0.44298393 1.5340999 4280685850
-0.72896725 -0.44465312 1.540807 4282201406
-0.68981045 -0.43508857 1.5460001 4282335563
-0.46901143 -0.40877146 1.506 4280944643
-0.41615468 -0.40398186 1.5192181 4281078802
-0.37230363 -0.40649238 1.5330521 4280947473
-0.33802742 -0.41212499 1.5416925 4281142277
-0.25842211 -0.42407832 1.5331011 4278977797
-0.22577305 -0.42453721 1.5310628 4280093187
-0.17734185 -0.42405438 1.514226 4280814849
0.018818911 -0.40095282 1.5198573 4278452481
0.087102756 -0.40149587 1.5396999 4278255873
-0.60420704 -0.38235578 1.5165336 4278976772
-0.59564251 -0.38101894 1.5132312 4278845956
-0.50707889 -0.38954622 1.5235255 4278911748
-0.47935432 -0.38947716 1.5208417 4278845956
-0.42645937 -0.39413828 1.5219879 4278911747
-0.38591155 -0.39489108 1.5377146 4278780673
-0.32141235 -0.38745141 1.5410001 4278321410
-0.25562429 -0.37649938 1.5393754 4278518529
-0.2265618 -0.37595421 1.5382144 4279962117
-0.17560308 -0.37547612 1.5223888 4280880386
-0.14677525 -0.37626094 1.5060003 4279698945
-0.013849285 -0.37025526 1.5084034 4280882183
0.024623306 -0.37434009 1.521884 4278977794
0.073887318 -0.373676 1.5336227 4278255873
0.10187107 -0.36677456 1.5309998 4278255873
-0.86304426 -0.30236763 1.5304445 4279767049
-0.25289643 -0.33296454 1.5434803 4278780929
-0.22724982 -0.32760188 1.540717 4280290565
-0.17466953 -0.32485929 1.5269972 4281010946
-0.14677197 -0.31625974 1.5081822 4280354817
-0.052984193 -0.31883332 1.5060004 4281473546
-0.023567209 -0.32506087 1.5102905 4280881414
0.025044791 -0.32477802 1.5314953 4279240194
0.072555855 -0.32725552 1.5432 4278255873
0.10313396 -0.33226606 1.5354004 4278255873
-0.85815418 -0.27896568 1.528188 4279634186
-0.83523631 -0.28145656 1.5306718 4279108357
-0.25445291 -0.2856006 1.5443529 4280357128
-0.22585277 -0.28560638 1.543034 4280290566
-0.17532274 -0.27504274 1.5351586 4280814338
-0.14561452 -0.27242461 1.5119603 4279895554
-0.069734834 -0.27224985 1.507076 4282066708
-0.024433682 -0.27566493 1.5171062 4280947719
0.02453837 -0.27501342 1.5398023 4279371779
0.058575138 -0.28122485 1.5460005 4278321409
0.1026 -0.29460856 1.539 4278255873
-0.85755497 -0.21514904 1.5217857 4279569939
-0.83989888 -0.21059851 1.5157504 4279109647
-0.73708075 -0.22721229 1.5319999 4279899407
-0.24490599 -0.23882021 1.546 4279633411
-0.1695165 -0.2351301 1.5378339 4280157955
-0.12765487 -0.23041889 1.5121641 4281145359
-0.074526966 -0.22446345 1.5093741 4282197778
-0.024927041 -0.22567081 1.5264802 4280947206
0.02065083 -0.2274085 1.5444708 4279765252
0.067033648 -0.23333791 1.5452222 4278321409
-0.85282892 -0.18099965 1.5433077 4279965200
-0.84414279 -0.16908702 1.5222689 4279964945
-0.072324187 -0.17578469 1.518339 4280883724
-0.024943607 -0.1751139 1.5339264 4280750339
0.0097962404 -0.18035692 1.5459994 4280816132
0.089199379 -0.17958269 1.5389652 4278255873
0.10268019 -0.18623143 1.5446001 4278256132
-0.85314691 -0.13809715 1.5425001 4279374348
-0.83799934 -0.11673429 1.5232501 4279569682
-0.068693675 -0.12501857 1.5294917 4280555783
-0.027563972 -0.12616566 1.5399071 4280684291
0.093749188 -0.1290796 1.5415002 4278452481
-0.83310896 -0.073849425 1.5244393 4280226325
-0.10113429 -0.052765712 1.539 4278255873
-0.07290598 -0.074144922 1.5378348 4280687114
-0.037543025 -0.083821304 1.545177 4280421378
0.087541379 -0.058569666 1.5430001 4278256129
-0.82837772 -0.025846176 1.5311185 4279832075
-0.68796051 -0.018073408 1.5129234 4279108873
-0.60394001 -0.01438653 1.5098574 4280946701
-0.57496566 -0.011926855 1.5151561 4280618507
-0.52544665 -0.013514479 1.5308373 4280552457
-0.48399928 -0.012116646 1.5455964 4280027910
-0.44760379 -0.013251428 1.5460002 4280158474
-0.075571634 -0.037811536 1.5405005 4280357382
-0.013690077 -0.017249173 1.5426841 4279371777
-0.60670286 0.0014342858 1.506 4278518017
-0.56967694 0.0017007793 1.5109092 4278386946
-0.10678218 0.024490278 1.5440809 4278255873
-0.09115459 0.012885624 1.5418276 4278255873
-0.011074236 0.045923263 1.5448947 4278255873
-0.0096926158 0.069726557 1.545805 4278255873
-0.010306667 0.10159429 1.5460001 4278255873
-0.35803679 0.23836601 1.5174078 4278845697
-0.34793943 0.24622972 1.5084001 4278255873
-0.70411652 0.25590953 1.5413333 4279239427
-0.69197857 0.28173572 1.5225002 4279304961
-0.36525294 0.27633488 1.5164118 4278452481
-0.34810805 0.25921351 1.5098183 4278386945
-0.70280004 0.34853142 1.506 4278583553
-0.68810022 0.32753128 1.5133951 4279173891
-0.4033955 0.3382017 1.5435293 4278255873
-0.38233703 0.32268307 1.5189191 4278255873
-0.063452914 0.3482222 1.5413336 4278255874
-0.01462849 0.34526712 1.5399132 4278321409
0.025657719 0.32974118 1.5222435 4278649089
0.07496421 0.3297537 1.5276074 4278321409
0.10341903 0.3250995 1.5304639 4278255873
-0.86226988 0.37082812 1.5309602 4278518273
-0.82375133 0.37106055 1.5277346 4278649345
-0.77564788 0.37163794 1.5187954 4279174402
-0.72379786 0.3702389 1.5067899 4278911747
-0.69071484 0.37634915 1.518579 4279042562
-0.42078683 0.37730819 1.5222186 4278255873
-0.38832608 0.3571794 1.5197146 4278255874
-0.072919987 0.3551957 1.5238723 4278255873
-0.026308736 0.35349575 1.5227787 4278386945
0.023413545 0.35352379 1.5119401 4278255873
0.07036303 0.35384831 1.5140336 4278321409
-0.71317363 0.42966807 1.5080621 4278583553
-0.68949068 0.424824 1.5177419 4279042306
-0.42815861 0.42317417 1.5112081 4278321409
-0.39586288 0.4431943 1.506 4278255873
-0.71771693 0.47544193 1.5128897 4278583554
-0.68953323 0.47369975 1.5342604 4278976771
-0.4371632 0.46769211 1.5069603 4278518017
-0.39442858 0.45180002 1.506 4278255874
-0.71721023 0.52475846 1.528458 4278714627
-0.69075793 0.52370358 1.5416979 4278976770
-0.45370096 0.53340912 1.5220001 4278255873
-0.44422752 0.51994604 1.5077275 4278321409
-0.72230256 0.57169503 1.536064 4278714628
-0.69295603 0.5565601 1.546 4278780163
-0.45324001 0.57238746 1.5108001 4278321409
-0.44495046 0.58227646 1.5089068 4278255873
0.066410288 0.5908398 1.5206001 4278846215
-0.72872311 0.61276823 1.5417149 4278845701
-0.45582974 0.62948555 1.523118 4278255873
-0.44523895 0.6251049 1.5138654 4278255873
0.048588578 0.64490288 1.5460001 4278255873
0.058747482 0.62599057 1.5216603 4278518532
-0.46263847 0.67103839 1.5333821 4278255873
-0.44487116 0.66262525 1.5136338 4278255873
0.058368195 0.65308702 1.5098001 4278255873
-0.65817618 -0.60743344 1.5530001 4282990413
-0.62205935 -0.61451524 1.5564984 4283188557
-0.57543284 -0.61472309 1.566201 4283648846
-0.52525258 -0.61780798 1.5869502 4283977295
-0.48642418 -0.62420791 1.5948461 4283255886
-0.29139361 -0.60870546 1.5896666 4278321411
-0.80199057 -0.59812003 1.5740001 4280814601
-0.79014111 -0.58903402 1.5613124 4279832328
-0.67503738 -0.55691069 1.5530003 4282003514
-0.62443656 -0.57519537 1.5608615 4282597196
-0.57447308 -0.57463199 1.5706183 4283319631
-0.53059465 -0.57761121 1.5897106 4283845195
-0.49349812 -0.59363341 1.5930003 4283454538
-0.28470832 -0.57931131 1.5730003 4278584069
-0.66916245 -0.51529348 1.5542798 4280160285
-0.62559432 -0.52423126 1.5664991 4280031271
-0.57451534 -0.52397805 1.5797559 4281806638
-0.54381061 -0.52684355 1.5881532 4282917910
-0.27997881 -0.52606046 1.5680671 4278912775
-0.77653557 -0.48900351 1.567 4278714634
-0.70459467 -0.46848312 1.5541202 4281144871
-0.67627037 -0.47447041 1.561201 4280095517
-0.62510002 -0.47521046 1.5734332 4280491041
-0.57615608 -0.47491464 1.5896057 4281542697
-0.54698288 -0.4827086 1.5960003 4282520081
-0.27882689 -0.47286576 1.5745578 4278846470
-0.71596122 -0.43777949 1.5569811 4282466123
-0.67798048 -0.44198197 1.5627863 4282926414
-0.62583488 -0.44180405 1.5796771 4283254605
-0.56812245 -0.44327801 1.5957363 4283188561
-0.54720002 -0.43624002 1.5960001 4280288060
-0.4272286 -0.40024573 1.5740001 4279043074
-0.36388129 -0.40306562 1.5585001 4279568898
-0.32468736 -0.40807974 1.5544552 4279962636
-0.28316343 -0.41639659 1.5634267 4279700232
-0.42135936 -0.39548606 1.5703639 4279042818
-0.36550373 -0.39771774 1.5599998 4278846466
-0.3236115 -0.39561224 1.5573562 4278386946
-0.27321145 -0.37395957 1.5698835 4278386945
-0.22432223 -0.35349244 1.553 4279175169
-0.26506305 -0.32404849 1.5647954 4278715393
-0.22391206 -0.32145467 1.5539411 4280027906
0.088636823 -0.31121299 1.5532924 4278321409
-0.87115276 -0.25783759 1.562958 4280490520
-0.84045464 -0.26320699 1.5607004 4278386946
-0.75430816 -0.25778687 1.5798335 4280027921
-0.72083688 -0.2577762 1.5779877 4280820516
-0.69363558 -0.25990093 1.5881541 4282070313
-0.26103669 -0.27295008 1.5582241 4279567618
-0.22686443 -0.2725932 1.5568343 4280356102
-0.19967143 -0.25291717 1.5530001 4281272837
0.07823202 -0.2747286 1.556823 4278386945
0.10449797 -0.26892966 1.5716668 4278255873
-0.86672372 -0.23040299 1.5723993 4280820003
-0.8434155 -0.2265406 1.5751038 4278649091
-0.75403076 -0.22042955 1.5801713 4280028947
-0.7253387 -0.22619703 1.5846078 4281148719
-0.69615304 -0.23770575 1.5944095 4282727480
-0.25764763 -0.24098417 1.5547504 4279501827
-0.22467583 -0.23815002 1.5582767 4279962372
-0.19610882 -0.23534155 1.5533044 4280027651
0.04215629 -0.2166701 1.5551116 4278321409
0.0697731 -0.22487777 1.5610421 4278386945
-0.85807681 -0.17505749 1.5802395 4279043847
-0.84443116 -0.17559917 1.5878813 4278255873
-0.75495148 -0.18142569 1.590471 4279963156
-0.73548651 -0.17454427 1.5910554 4280819500
0.030458419 -0.17310485 1.5593731 4278912002
0.068411984 -0.17339218 1.5675269 4278321409
0.10353334 -0.18044382 1.5530001 4278255873
-0.861112 -0.1295823 1.5858301 4278650118
-0.84765327 -0.13781334 1.5960002 4278255873
-0.75334507 -0.12019167 1.5942501 4279506190
-0.73845774 -0.13077916 1.5946096 4280951595
-0.0051357145 -0.11443172 1.5556769 4281472770
0.02547453 -0.12509364 1.5662527 4279371522
0.070986733 -0.12470608 1.5721234 4278321409
-0.85480225 -0.079155996 1.5908653 4278846218
-0.84329617 -0.073105268 1.5701085 4279175432
-0.74570233 -0.079446524 1.5926925 4280226070
-0.51000786 -0.08409334 1.5951767 4279636522
-0.053245716 -0.051766668 1.5530001 4280818694
-0.018313866 -0.070856646 1.5582393 4281012739
0.025157554 -0.075865418 1.5727633 4279437315
0.071782947 -0.076163933 1.577469 4278321409
0.1004362 -0.097438097 1.5740001 4278584065
-0.85546935 -0.041976884 1.5932002 4278978054
-0.83731329 -0.032729652 1.5699568 4278846725
-0.50807053 -0.030386867 1.5793105 4279632646
-0.47203645 -0.018859861 1.5598041 4280159495
-0.42425546 -0.017888337 1.5582265 4280356871
-0.37369651 -0.021564219 1.5715283 4280291333
-0.34241545 -0.02166556 1.578837 4278518017
-0.10572239 -0.0029814288 1.5635 4278255873
-0.070417464 -0.027758403 1.5560802 4279831812
-0.024855195 -0.03635418 1.558686 4279831043
0.024718873 -0.040713232 1.5783879 4279239682
0.072614603 -0.041904647 1.5815396 4278321409
-0.52802002 0.0014790477 1.5530001 4278255873
-0.1096792 0.035244338 1.5561498 4278255873
-0.073882848 0.032641072 1.5599273 4278255873
-0.035242919 0.03660059 1.5647603 4278255873
0.0059161908 0.047822546 1.5530001 4278255873
-0.11024224 0.075720109 1.557317 4278255873
-0.076257251 0.075709753 1.5651797 4278255873
-0.030235354 0.077273324 1.5646219 4278255873
0.022497974 0.078146778 1.5635417 4278255873
0.073125683 0.087711431 1.5782725 4278255873
0.10320235 0.093385547 1.5746366 4278255873
-0.86668426 0.13390505 1.593622 4278452483
-0.84501857 0.13872531 1.5960004 4278846471
-0.11310474 0.12689134 1.566147 4278452737
-0.07604643 0.1254534 1.5724419 4278518273
-0.025994513 0.12540792 1.5699986 4278321409
0.025792651 0.12537113 1.5726889 4278845698
0.074673697 0.12388995 1.5864701 4278255873
0.10264909 0.11188807 1.5836473 4278255873
-0.8669008 0.16177432 1.5953482 4278255876
-0.84313232 0.15375386 1.5960001 4278453262
-0.11699931 0.17577061 1.5698218 4278780673
-0.075937666 0.17516403 1.5822558 4279371009
-0.025191298 0.17514257 1.5801855 4278781191
0.025182925 0.17445208 1.5815716 4279111187
0.063742772 0.170039 1.5943906 4278255873
0.10832375 0.19194336 1.5903481 4278255873
-0.86410469 0.21397319 1.5898463 4278321409
-0.84749436 0.20262954 1.5530001 4278780163
-0.71322829 0.24582402 1.5685557 4278781192
-0.11867216 0.22696175 1.5805196 4278583809
-0.074424915 0.22462493 1.5905873 4279108609
-0.024064107 0.22498569 1.5878646 4278518531
0.020609973 0.22093417 1.5947133 4278585353
0.052060001 0.20671999 1.596 4278255873
0.10500786 0.20675611 1.5904168 4278255873
-0.7111311 0.26292375 1.5737183 4278977290
-0.69848377 0.25892973 1.5615557 4278913036
-0.11821806 0.27468526 1.5889049 4278583809
-0.078345791 0.26881 1.5952951 4279108609
-0.015916822 0.27346474 1.5935234 4278518530
0.0066646137 0.25793231 1.5960004 4278585347
-0.71009243 0.34750718 1.5830001 4278518018
-0.41265431 0.34408027 1.5530002 4278255873
-0.11653096 0.32339403 1.5942069 4278386945
-0.079135358 0.34040114 1.5806687 4278518273
-0.019237449 0.33116749 1.5767542 4278386946
0.023818322 0.31037942 1.572945 4278649345
0.074197754 0.30789092 1.5709776 4278255873
0.10473877 0.30385762 1.5579002 4278255873
-0.90402538 0.36051202 1.5932 4278780417
-0.87531823 0.36359906 1.5793064 4278649346
-0.82530791 0.36312592 1.5777879 4278583811
-0.78891498 0.36133084 1.5704449 4278518274
-0.70732152 0.35712755 1.5838464 4278386947
-0.67634928 0.36519808 1.5767189 4279043075
-0.62291878 0.35983324 1.5829917 4280158983
-0.59563744 0.36120918 1.5920771 4280094214
-0.41413334 0.35201338 1.5530001 4278255873
-0.11303814 0.36319116 1.586246 4278386945
-0.090028398 0.3565006 1.5598279 4278255873
-0.032834858 0.35053432 1.5530001 4278321409
-0.68529207 0.49055085 1.5530001 4279238914
-0.68771851 0.53157407 1.5589498 4278714626
-0.71237302 0.5872978 1.5588188 4278780163
-0.69314647 0.57975692 1.5663112 4278780163
0.057534289 0.59664696 1.5623335 4278255873
-0.75402099 0.64908767 1.5740001 4278453257
-0.7176072 0.62811154 1.5608824 4278649091
-0.69477153 0.62349671 1.5721943 4278911236
0.041862648 0.63049829 1.5743437 4278255873
0.05289188 0.60862148 1.5727895 4278255873
-0.91009998 0.68931997 1.596 4281014796
-0.75193268 0.67246056 1.5683999 4278976771
-0.72230315 0.67510808 1.563862 4278845699
-0.6891436 0.67412758 1.57169 4278714626
-0.47910413 0.68132013 1.5539546 4278386945
0.042124096 0.65790093 1.5685002 4278255873
0.050160002 0.68551999 1.5960001 4278255873
-0.91094774 0.70855397 1.5960004 4281871625
-0.71430153 0.70371491 1.5752503 4278649089
-0.69063652 0.70399946 1.5779998 4278714627
-0.40417716 -0.65194857 1.626 4283452738
-0.39488572 -0.65194857 1.626 4283190847
-0.46750224 -0.62033314 1.6049093 4283584086
-0.42443782 -0.62403673 1.6166093 4282926150
-0.39279553 -0.62334216 1.628333 4283387465
-0.30985016 -0.61957908 1.6325517 4278386946
-0.29893813 -0.61013395 1.6096667 4278255877
-0.51355314 -0.56184423 1.6045988 4282003504
-0.4746356 -0.57413632 1.6098505 4282597187
-0.4274734 -0.57687938 1.6292036 4281610041
-0.39341885 -0.57484239 1.6380224 4281281849
-0.30409634 -0.57226855 1.6193181 4278321667
-0.29587847 -0.57170361 1.6066927 4278583813
-0.52059335 -0.5244301 1.6058719 4281081364
-0.47445586 -0.5241822 1.6181058 4280361254
-0.42567313 -0.52566314 1.6379122 4281477674
-0.39358357 -0.52405661 1.6413178 4279505942
-0.30301762 -0.52871263 1.6306251 4278387201
-0.294541 -0.52326047 1.6171001 4278452997
-0.55265337 -0.45952669 1.603 4284700758
-0.52340603 -0.47466671 1.6136739 4282330412
-0.47491145 -0.47605446 1.6329046 4281676340
-0.42672056 -0.47764778 1.6444428 4281873460
-0.39267859 -0.47245941 1.6472608 4283188554
-0.30317318 -0.47201815 1.6447273 4278321412
-0.29501393 -0.47212833 1.6320667 4278583811
-0.60245335 -0.44334668 1.622 4280288047
-0.58204877 -0.44291654 1.6046211 4283254611
-0.52983493 -0.44483021 1.6157963 4282534991
-0.47387642 -0.44595733 1.636827 4282201662
-0.43820325 -0.44739312 1.6450003 4282594374
-0.39497477 -0.4468005 1.649 4281477457
-0.30399859 -0.42917541 1.6425 4278518274
-0.29454735 -0.41218546 1.6277223 4278255875
-0.88613999 -0.3829 1.641 4278518018
-0.7862851 -0.35283366 1.649 4279502856
-0.42899334 -0.39387998 1.603 4279436035
-0.2884922 -0.38842261 1.6228638 4278255873
-0.77801907 -0.34318638 1.6390002 4279961355
-0.32822955 -0.30938381 1.649 4278388994
-0.2857562 -0.34592843 1.6268572 4278387202
-0.67143053 -0.25977561 1.6115328 4282465600
-0.6316998 -0.26284939 1.6262426 4282663240
-0.36801493 -0.26122257 1.649 4280943105
-0.70578927 -0.20708053 1.6055716 4282004276
-0.67406076 -0.22423238 1.6145284 4282596932
-0.63076288 -0.22629568 1.6338077 4282596165
-0.85214669 -0.17875049 1.618 4278321668
-0.76754975 -0.18166037 1.6103891 4279831831
-0.71310419 -0.17369117 1.6114202 4280228382
-0.67557508 -0.17536563 1.6280506 4281676345
-0.63675857 -0.17706282 1.6413916 4283912024
-0.85482138 -0.11304235 1.6051947 4278321410
-0.84462899 -0.12373343 1.6039603 4278255873
-0.75847548 -0.10698572 1.6074444 4279897108
-0.71849412 -0.1220431 1.6168183 4280622629
-0.67620504 -0.12521626 1.6383406 4281478964
-0.64373136 -0.12985009 1.6465575 4283978074
-0.51028639 -0.10642125 1.6250001 4280098841
-0.47298604 -0.10992334 1.6245071 4283649604
-0.42138895 -0.11010575 1.6135846 4281936928
-0.3770473 -0.10840731 1.6329219 4281608475
-0.34286386 -0.10733988 1.6232173 4279768084
-0.85711974 -0.0742689 1.6154095 4278386946
-0.84462255 -0.075878926 1.6154306 4278321411
-0.7516464 -0.069645621 1.6143159 4279438096
-0.72595829 -0.075007342 1.6243073 4280161309
-0.68216908 -0.077133566 1.6446337 4281742136
-0.50862533 -0.071997024 1.6079717 4280096020
-0.47557753 -0.075091384 1.6068976 4281610541
-0.42529967 -0.075218059 1.612265 4281804317
-0.37517092 -0.074545361 1.6267517 4280161296
-0.34321141 -0.078120574 1.6289299 4279504395
-0.85458285 -0.040270794 1.6107502 4278386945
-0.84222776 -0.037988998 1.6090001 4278255873
-0.75357527 -0.041148569 1.6186154 4278912270
-0.72484177 -0.036703296 1.6261237 4279043599
-0.6824891 -0.034923822 1.645089 4280293661
-0.50866294 -0.042874135 1.6076156 4279174153
-0.47401953 -0.038719952 1.6077222 4281013782
-0.42560139 -0.039583791 1.6126893 4282456594
-0.3736091 -0.042619824 1.624855 4280289543
-0.34767351 -0.038564954 1.6195999 4278452481
-0.74021721 0.096011437 1.626 4278780682
-0.90302384 0.11464477 1.649 4278780680
-0.86867201 0.11682473 1.623542 4278846473
-0.83549351 0.13444251 1.6106617 4278321409
-0.7531305 0.10400984 1.6463333 4279305220
-0.74166542 0.118628 1.6380831 4279043080
0.096179999 0.14541501 1.6029999 4278255873
0.10228667 0.14350668 1.603 4278255873
-0.9360038 0.19945048 1.649 4278583556
-0.86472028 0.17644125 1.607052 4278321411
-0.83457583 0.17662117 1.6180931 4278452482
-0.74911714 0.1649 1.649 4279502353
