# .PCD v0.7 - Point Cloud Data file format
VERSION 0.7
FIELDS x y z rgba
SIZE 4 4 4 4
TYPE F F F U
COUNT 1 1 1 1
WIDTH 1085
HEIGHT 1
VIEWPOINT 0 0 0 1 0 0 0
POINTS 1085
DATA ascii
0.40345338 0.12308654 1.3569578 4280953386
0.39310816 0.17619208 1.3612088 4280492834
0.40205446 0.16664378 1.3545237 4281809726
-0.10237334 0.24862096 1.396 4278255873
0.00990682 0.21883288 1.3649598 4278255873
0.14635938 0.22104128 1.3520001 4278255873
0.15374173 0.21812268 1.3520001 4278255873
0.39121422 0.21029 1.3622202 4279571996
-0.15289524 0.29515427 1.396 4278255873
-0.12261011 0.28397238 1.3960017 4278255874
-0.12347813 0.32786283 1.3928733 4278255873
-0.09306667 0.32573333 1.396 4278255873
0.37368265 0.34062701 1.360643 4278716421
-0.15432476 0.38244718 1.3950999 4278321412
-0.13257751 0.37614486 1.39182 4278255873
0.37021548 0.37638736 1.3595011 4279176207
-0.16503039 0.42542669 1.3930687 4278255874
-0.13308662 0.40762126 1.3936226 4278321409
0.36650813 0.42222181 1.3593141 4279176970
-0.17704912 0.45390573 1.3942499 4278255873
-0.13906819 0.47676724 1.396 4278255875
-0.091737144 0.4640038 1.396 4278255873
0.34808636 0.48028195 1.3520001 4278846980
0.36251539 0.47426629 1.3621382 4279571214
-0.21006477 0.52915055 1.396 4278255873
-0.15200889 0.52516192 1.396 4278255874
-0.13323729 0.52630144 1.396 4278255873
0.34437943 0.53255659 1.3609716 4278649858
0.35806656 0.5243724 1.3634603 4279702805
-0.21834156 0.58512771 1.3876724 4278255873
-0.17405619 0.58258367 1.3813194 4278255873
-0.12565412 0.57918465 1.3873864 4278255873
-0.09584678 0.58086437 1.3905625 4278255873
-0.015897945 0.5950734 1.3760263 4278255873
0.024276966 0.59724939 1.3749752 4278255873
0.059940889 0.59869438 1.3742944 4278255873
0.12345333 0.59756666 1.3790001 4278255873
0.34403813 0.57821661 1.3648945 4278846728
0.35554954 0.57199425 1.3626325 4279768607
-0.25260952 0.61291051 1.396 4278255873
-0.22692563 0.60824072 1.3849125 4278255873
-0.17737593 0.6040923 1.3658354 4278255873
-0.1236963 0.60560662 1.3752192 4278255873
-0.094191805 0.60499394 1.3766156 4278255873
-0.02340872 0.60203689 1.3674617 4278255873
0.033757605 0.6010043 1.3663105 4278255873
0.080215536 0.60244751 1.3720281 4278255873
0.11472728 0.60320181 1.3732467 4278255873
0.34408072 0.60547328 1.3646523 4278651145
0.35322517 0.60343426 1.3556 4279705368
-0.56500763 -0.56626689 1.4448148 4279370754
-0.53957212 -0.56488574 1.4486518 4280355591
-0.56846714 -0.52490067 1.4440054 4279370499
-0.53812516 -0.53875858 1.4479686 4280421381
0.077999264 -0.53045934 1.429926 4278452481
0.12543379 -0.5212906 1.4235803 4278321409
0.16900089 -0.51251483 1.422762 4278255873
-0.57487041 -0.47672424 1.4451877 4279501827
-0.54613501 -0.49093506 1.4490002 4281275146
0.18366329 -0.47245345 1.4203659 4278321409
-0.57887906 -0.42853713 1.4457551 4279830023
0.18417725 -0.42482048 1.4233277 4278650117
-0.80996746 -0.37038037 1.4357498 4280226573
-0.77880859 -0.36547625 1.432393 4281014030
-0.70960343 -0.36504143 1.4422004 4280290826
-0.68223101 -0.36825037 1.4403501 4281014799
-0.60030007 -0.35466003 1.449 4278781441
-0.58626616 -0.37961879 1.448119 4280158213
-0.5383299 -0.35751885 1.4430001 4280422931
0.17557995 -0.37533718 1.4293028 4278781957
-0.80664152 -0.32602695 1.4216084 4279175948
-0.77197999 -0.32399717 1.415947 4281014803
-0.72688317 -0.325216 1.4278485 4280226575
-0.6793468 -0.32422513 1.4300007 4281080082
-0.62508053 -0.31815618 1.4364613 4281540375
-0.59263307 -0.3409881 1.4488127 4279830535
-0.53916365 -0.31905103 1.4447144 4279764753
0.16761348 -0.32849947 1.431535 4278716169
-0.80830777 -0.27504963 1.4292166 4280883726
-0.7751509 -0.2749058 1.4287834 4280686350
-0.72421205 -0.27077428 1.4304123 4280489741
-0.67787373 -0.27816385 1.4152024 4280883216
-0.63041556 -0.27847022 1.4241108 4281079568
-0.5939914 -0.29354572 1.4490002 4280092679
0.14979714 -0.25149429 1.4430001 4278912773
0.16066727 -0.27356791 1.4357955 4278782214
-0.80789101 -0.24202517 1.4272856 4279571466
-0.77422446 -0.2408541 1.4319688 4280159754
-0.730129 -0.23722868 1.4363745 4280356615
-0.67524582 -0.23698711 1.415182 4279569163
-0.63960135 -0.23837893 1.4144446 4280422677
0.14605643 -0.2191807 1.4332501 4278584324
0.15769745 -0.22539175 1.4269596 4278650886
-0.55154246 -0.18096206 1.4472858 4279962124
-0.54155779 -0.17867143 1.435737 4279962123
0.030664241 -0.15405139 1.41905 4278714881
0.14440572 -0.19590643 1.4137502 4278715137
0.15379485 -0.19812173 1.4190001 4278977030
0.03648857 -0.14730571 1.419 4279568897
-0.63618004 -0.062100001 1.4490001 4279829264
-0.053976674 0.044784293 1.4470001 4278255873
-0.036222856 0.040705811 1.4408709 4278255873
-0.64312917 0.094149724 1.4454001 4278255877
-0.10985436 0.07887771 1.4419991 4278255874
-0.073550768 0.079259135 1.4339799 4278255874
-0.028382113 0.076520234 1.4330286 4278255873
-0.80877036 0.13464192 1.44875 4279568391
-0.79315507 0.14041501 1.4490002 4279109122
-0.64308 0.10074001 1.4490001 4278255873
-0.11422639 0.12702195 1.4397131 4278650117
-0.074412964 0.12537199 1.4196057 4278255873
-0.026836058 0.1242492 1.4317821 4278255873
0.0013800001 0.10350001 1.4490001 4278321921
-0.65554142 0.17624003 1.4400001 4278714882
-0.20378001 0.19642001 1.449 4278256129
-0.16924919 0.18654203 1.4367269 4278321410
-0.12454789 0.17610115 1.431623 4278782477
-0.074750595 0.17474195 1.4110583 4278519302
-0.03417645 0.17391245 1.4320002 4278255873
-0.21415561 0.23064391 1.4425375 4278256129
-0.17418438 0.22441423 1.4206721 4278255874
-0.12515713 0.22535603 1.4136873 4278255873
-0.073931523 0.22464776 1.4106686 4278255873
-0.031155923 0.22015166 1.4318082 4278255873
0.0028009526 0.2169192 1.4068183 4278255873
0.3992362 0.23099619 1.4020001 4278321665
-0.2191781 0.27652636 1.4406708 4278256130
-0.17427599 0.27439651 1.4151186 4278255874
-0.1247493 0.27099073 1.4038845 4278255873
-0.074672669 0.27470472 1.4159435 4278255873
-0.046365235 0.26356623 1.4390001 4278255873
-0.25374708 0.33263975 1.4487271 4278321409
-0.22558744 0.32506007 1.4379854 4278256129
-0.17452843 0.32568046 1.4118636 4278255874
-0.12443094 0.32077801 1.4031636 4278255873
-0.079909563 0.32510704 1.4187855 4278255873
-0.25582743 0.37932774 1.4483572 4278255873
-0.22408801 0.37492496 1.4277174 4278256129
-0.17716266 0.37353528 1.4070292 4278255874
-0.112018 0.37408495 1.4045844 4278255873
-0.086979784 0.37354493 1.4178568 4278255873
-0.25857064 0.42869592 1.448314 4278255874
-0.22415677 0.42481098 1.4247031 4278255873
-0.18006836 0.42494977 1.4066771 4278255873
-0.12321358 0.42880306 1.4056013 4278255873
-0.091430925 0.42452314 1.4216839 4278255873
-0.26453316 0.48479572 1.4466 4278255873
-0.22475247 0.47476277 1.4282142 4278255873
-0.17340212 0.47784892 1.4084955 4278255873
-0.12425385 0.47539771 1.4065956 4278255873
-0.095552817 0.47401309 1.4106945 4278255873
-0.82938004 0.52302003 1.449 4278322447
-0.26889896 0.52244663 1.4334329 4278255873
-0.22445264 0.52230126 1.4159902 4278255873
-0.17562348 0.52520859 1.4085965 4278255873
-0.12311786 0.52476579 1.4045733 4278255873
-0.094322704 0.52815139 1.4128315 4278255873
-0.31732437 0.57539815 1.4416959 4278255873
-0.27462947 0.57351649 1.4216229 4278255873
-0.22971322 0.56708741 1.4072877 4278255873
-0.17778376 0.56023669 1.404549 4278255873
-0.12823717 0.55612922 1.4030961 4278255873
-0.08372657 0.57647246 1.4136741 4278255873
-0.024598209 0.59288514 1.4247714 4278255873
0.024966057 0.59659737 1.4195068 4278321409
0.059125986 0.59757215 1.4243442 4278255873
-0.36196589 0.64559644 1.449 4278255875
-0.32259199 0.62485629 1.4418968 4278255873
-0.27785084 0.61557478 1.4127781 4278255873
-0.047500003 0.60121429 1.4250001 4278255873
0.025760001 0.60030007 1.4490002 4278321409
0.084354393 0.60334402 1.4266158 4278255873
0.11207031 0.6041581 1.423671 4278255873
-0.60959339 -0.60245526 1.4990001 4278255874
-0.5251599 -0.60102767 1.499 4279435777
-0.60959339 -0.59817243 1.4990001 4278255874
-0.58609766 -0.58385175 1.4616998 4278452481
-0.53189653 -0.57882822 1.4712456 4280092678
-0.55183405 -0.51154178 1.455 4280158218
-0.53824067 -0.52245742 1.4616227 4280355848
0.049833335 -0.53962761 1.495 4278649089
0.074785225 -0.52742398 1.4764934 4278518017
0.12544157 -0.52011365 1.4739461 4278321409
0.16054079 -0.51159739 1.4723102 4278255873
-0.60083908 -0.46022573 1.4570001 4278387201
-0.55768955 -0.46775055 1.4579045 4280486404
-0.54347098 -0.47769877 1.4669566 4280551942
0.16722386 -0.4658367 1.474054 4278452740
-0.81435215 -0.40862396 1.4679844 4279371531
-0.77547556 -0.41046691 1.478435 4280619793
-0.72238576 -0.41236565 1.4792933 4280422928
-0.67919517 -0.40763539 1.4778719 4280948245
-0.56137604 -0.41988516 1.4573265 4280552971
-0.54548335 -0.42791831 1.4611846 4280552964
0.16595386 -0.42656088 1.4732306 4278781961
-0.81855851 -0.39391497 1.4595002 4279896077
-0.76457328 -0.38167298 1.4663391 4280685840
-0.73251832 -0.37973699 1.4674832 4280226316
-0.66615051 -0.37720248 1.4742689 4280751119
-0.63820851 -0.36594954 1.4906796 4280619536
-0.56879884 -0.37280291 1.4630003 4280814857
-0.54734862 -0.38649535 1.4659569 4280618245
0.14960001 -0.37471813 1.4960001 4279109906
0.16004069 -0.37743524 1.4690843 4278781446
-0.75945264 -0.31785125 1.4674191 4279963146
-0.7432698 -0.33086401 1.4622384 4279240964
-0.66646111 -0.34467396 1.4702857 4280224775
-0.61667728 -0.33003604 1.4617471 4280291598
-0.57457405 -0.32393426 1.4639009 4280749066
-0.54764241 -0.32125449 1.4622502 4280027407
0.14743769 -0.32233134 1.489879 4279175182
0.15633003 -0.32639384 1.4689898 4278453507
-0.75931025 -0.29376054 1.4610002 4279961616
-0.74757779 -0.29509202 1.4574001 4278977031
-0.62104398 -0.26599473 1.4683417 4279305989
-0.57823449 -0.27530551 1.4700205 4280749578
-0.54907721 -0.29759145 1.4670001 4279305238
0.14577 -0.27600008 1.4755434 4278715141
0.15405464 -0.28484845 1.4598386 4278584579
-0.75660002 -0.22448573 1.455 4279964434
-0.74828577 -0.23002858 1.455 4279636237
-0.66042912 -0.22704592 1.4635065 4279108613
-0.62516731 -0.22819583 1.4709524 4279502853
-0.58318871 -0.22595239 1.4790748 4280749832
-0.54677808 -0.22984667 1.4990001 4280489734
0.14460209 -0.23721184 1.4600003 4278649348
0.15431081 -0.23146731 1.4553334 4278781444
-0.61639184 -0.17284131 1.472482 4279897352
-0.58660316 -0.1785471 1.4807345 4280618762
0.019298706 -0.15565749 1.4714803 4279435777
0.10802317 -0.15751398 1.4990001 4278847489
-0.61884308 -0.12437489 1.4780489 4279897095
-0.58708537 -0.12656708 1.4841291 4281143819
0.030611429 -0.14888287 1.4610001 4280355841
-0.82603389 -0.058948725 1.4888334 4279044366
-0.79779047 -0.052152384 1.48 4278321418
-0.62252802 -0.075158939 1.4770765 4279634438
-0.59013784 -0.075673521 1.4883327 4281406479
-0.82080412 -0.024208002 1.4802142 4279501830
-0.77752519 -0.024159294 1.4901503 4279173635
-0.74120104 -0.022282057 1.4975824 4279173892
-0.62361944 -0.025846886 1.482684 4279765254
-0.59296638 -0.030508222 1.4938356 4281079048
-0.8227824 0.025232187 1.4848903 4280290317
-0.78113168 0.026082352 1.4923714 4279961096
-0.65344107 0.023952601 1.479923 4278321411
-0.62641072 0.025729502 1.4892881 4279961862
-0.59220713 0.022526886 1.4912654 4280356109
-0.15837656 0.049223691 1.4981251 4278255873
-0.11560232 0.034408249 1.4885297 4278255873
-0.07618852 0.030795529 1.4657034 4278255873
-0.02674317 0.0356295 1.4720477 4278255873
-0.82366717 0.075227156 1.488277 4283320648
-0.77934301 0.077290535 1.4960009 4283386181
-0.74664479 0.078519054 1.4990001 4283389787
-0.65292114 0.074398249 1.4733846 4278518017
-0.62937754 0.074888237 1.4883451 4280027397
-0.59818858 0.056533337 1.4966668 4280617500
-0.20323649 0.08631175 1.4971159 4278256641
-0.17292213 0.076389335 1.4846128 4278321666
-0.13176619 0.072579972 1.46183 4278255875
-0.082107253 0.056968965 1.4592005 4278255873
-0.0059941472 0.067471169 1.4625458 4278255873
0.0016702857 0.084358856 1.4616001 4278256130
-0.8200233 0.11793901 1.4751773 4279239942
-0.77969778 0.12731835 1.4770722 4279502856
-0.72684526 0.14063953 1.4795333 4279961861
-0.67168397 0.13519581 1.4854914 4279502339
-0.63121688 0.12323701 1.4926572 4279830277
-0.59817243 0.10136096 1.4990001 4279108635
-0.21038409 0.12385454 1.4921751 4278650375
-0.17495938 0.12422473 1.4742844 4279045393
-0.13831663 0.12345619 1.4578758 4278716168
-0.0027828573 0.10157429 1.4610001 4278255873
-0.71795869 0.15364964 1.476941 4278714881
-0.66743928 0.17100514 1.4833946 4278977026
-0.63805145 0.17411499 1.4935608 4279567619
-0.21818446 0.17565055 1.4760333 4278321409
-0.17964296 0.16689463 1.4615788 4278321667
-0.1455 0.15436858 1.455 4279702302
-0.018017279 0.18262327 1.4552858 4278255873
-0.66208881 0.22708574 1.4853634 4279042563
-0.6358701 0.22268875 1.4976417 4279698947
-0.23127866 0.21990912 1.4659915 4278255873
-0.018639468 0.21011341 1.4568753 4278255873
-0.66413856 0.27661726 1.4869735 4279042562
-0.63747829 0.27302453 1.4982423 4279567618
-0.25672445 0.28078279 1.4583248 4278715396
-0.24405603 0.2701427 1.4550964 4278321667
-0.048500001 0.28961429 1.455 4278255873
-0.6668551 0.32626006 1.4872154 4278976771
-0.63698816 0.32920429 1.498031 4279895299
-0.26222998 0.32544371 1.458061 4278321410
-0.24804287 0.30070001 1.455 4278321410
-0.057082493 0.3133055 1.4550006 4278255873
-0.048500001 0.30901429 1.455 4278255873
-0.67328918 0.37648982 1.4890519 4278714627
-0.64090651 0.36678484 1.498028 4279501571
-0.27608413 0.37666935 1.4740586 4278255873
-0.67229253 0.4246259 1.4904412 4278780162
-0.6461404 0.4385646 1.4990002 4279632385
-0.30551049 0.42971328 1.4990004 4278321409
-0.27902162 0.42301628 1.4701098 4278255874
-0.70287514 0.49008989 1.4958003 4278780162
-0.67673182 0.47340924 1.4931196 4278845698
-0.64630353 0.46683145 1.499 4278911235
-0.3099384 0.48470905 1.4883891 4278255873
-0.28170931 0.47299299 1.4661893 4278255873
-0.85422671 0.51675087 1.4964001 4281011969
-0.82584274 0.52271503 1.4864854 4279830790
-0.78496033 0.52747083 1.4912502 4279699460
-0.73668098 0.52892071 1.4987411 4279896324
-0.68359661 0.52157342 1.4970839 4278714627
-0.36757314 0.54784465 1.4882224 4278255873
-0.32131892 0.52766228 1.4792813 4278255873
-0.29547998 0.52932256 1.4562314 4278255873
-0.70910668 0.57517296 1.4940135 4278321409
-0.69622213 0.56235635 1.4939586 4278386945
-0.41072622 0.58581764 1.4893382 4278321409
-0.37370706 0.57523131 1.4773362 4278255873
-0.33544746 0.56621414 1.4660965 4278255873
-0.29515713 0.55151433 1.455 4278255873
-0.056413103 0.59227234 1.4728487 4278255873
-0.025999717 0.5907402 1.4752709 4278321409
0.031041263 0.58980542 1.4800203 4278255873
0.073977277 0.5811767 1.481946 4278518017
0.11796608 0.58288193 1.4870087 4278255873
-0.71809244 0.60673815 1.499 4278386951
-0.41261557 0.62806237 1.4776031 4278386945
-0.37710503 0.62699068 1.4699024 4278255873
-0.34269866 0.61581743 1.455611 4278255873
0.026754946 0.60001427 1.455 4278321409
0.086325601 0.6026786 1.4679755 4278255873
0.11703332 0.60318929 1.4705576 4278255873
-0.41671136 0.65491498 1.4734998 4278386945
-0.39386916 0.65309322 1.4634001 4278256129
-0.88490099 -0.62576193 1.5460001 4278714629
-0.76821476 -0.62465769 1.546 4278321409
-0.72082412 -0.61628014 1.5378869 4278452483
-0.67488396 -0.6095559 1.5288295 4278321410
-0.63408804 -0.60696411 1.5234038 4278321409
-0.52397543 -0.60181153 1.5109314 4279173889
-0.47966459 -0.60591358 1.522046 4280552453
-0.43429777 -0.60337687 1.539 4280421128
0.031479705 -0.60597515 1.5288725 4279567361
0.068556413 -0.60376567 1.5202756 4278518017
-0.61243999 -0.59809715 1.506 4278255873
-0.55307692 -0.59883928 1.5404 4278518017
-0.52153164 -0.59570014 1.5212905 4278518018
-0.4742274 -0.59189409 1.5249841 4278780931
-0.42948905 -0.59019512 1.5361209 4279240708
-0.38267025 -0.58850986 1.5446879 4279963399
0.033670831 -0.57640982 1.5245453 4279371010
0.061387379 -0.58563453 1.5217929 4278518017
-0.82600582 -0.54330862 1.5460001 4283118399
0.030960394 -0.52431881 1.523858 4280092418
0.074108586 -0.51642162 1.5287358 4280224258
0.12410375 -0.51405221 1.5305399 4278649345
0.15229188 -0.510041 1.5264705 4278321409
-0.87088633 -0.47530663 1.546 4278846471
-0.78958374 -0.46519494 1.5459999 4279043604
-0.5531562 -0.49100384 1.506 4278780420
-0.54933143 -0.48909149 1.506 4279173636
0.027625205 -0.47494736 1.5237019 4280421122
0.074577004 -0.47454557 1.5309455 4280552706
0.12476463 -0.47556767 1.5402386 4279108353
0.15390792 -0.47580731 1.5267065 4278321409
-0.8815881 -0.43840149 1.5460002 4278387717
-0.82005572 -0.43712157 1.5378888 4279306256
-0.78566414 -0.43170229 1.524875 4279635212
-0.73530471 -0.44196904 1.5383335 4279436815
-0.67322129 -0.4110634 1.5220001 4280290829
0.02732726 -0.42646614 1.5264909 4280553219
0.074625358 -0.42506343 1.5357192 4280421379
0.12573655 -0.42553386 1.5401801 4279174403
0.15284318 -0.42719674 1.5157653 4278715141
-0.65374744 -0.39098626 1.506 4280814350
-0.63658547 -0.37340769 1.5073338 4280290572
-0.0014723811 -0.35484383 1.5460001 4279567105
0.02533235 -0.3751266 1.5307468 4280750595
0.074451372 -0.37396473 1.5376877 4280618755
0.12571959 -0.37490705 1.5385131 4279305733
0.15139431 -0.37581196 1.5087273 4279043854
-0.0048613353 -0.32131514 1.5426351 4280026881
0.025234388 -0.32442665 1.5329484 4281078790
0.074672341 -0.32464889 1.5418429 4280749571
0.12675212 -0.3279196 1.5368572 4279371271
-0.56880003 -0.28656003 1.5120001 4279502083
-0.0065105828 -0.2730459 1.537056 4280092161
0.024941398 -0.2744858 1.535042 4281604873
0.072018228 -0.276914 1.5454078 4280881670
0.12818919 -0.2735762 1.5351049 4279240458
-0.57047993 -0.22382215 1.5326983 4279436548
-0.52658391 -0.22196245 1.5423868 4280027399
-0.49567279 -0.21366847 1.546 4279765252
-0.0087696929 -0.2234823 1.5351027 4280289796
0.02477517 -0.22487216 1.5384989 4281802766
0.064634562 -0.2275994 1.5452883 4281210375
0.12969591 -0.22807823 1.5316777 4279306252
-0.58254123 -0.16826163 1.5119635 4280355850
-0.48735812 -0.19877145 1.5460001 4278584577
-0.011757351 -0.17368409 1.5329143 4280685062
0.02112986 -0.17937414 1.5359464 4279436803
0.067366771 -0.18391812 1.5397496 4278977794
0.11674656 -0.15470472 1.5182804 4278912002
-0.013575931 -0.12349137 1.5357656 4281474062
0.02293095 -0.12495022 1.5423542 4283118371
0.070715562 -0.13643689 1.5451759 4281144584
0.12054936 -0.14534463 1.5299052 4279174145
-0.86746413 -0.064716123 1.542792 4279440922
-0.81306541 -0.056655917 1.5336673 4279176723
-0.78608227 -0.054477461 1.5374004 4279177484
-0.74355239 -0.051533338 1.5460001 4279634453
-0.017212516 -0.073465697 1.537233 4281409297
0.023254432 -0.074146964 1.5449456 4282592793
0.051533338 -0.058895238 1.5460001 4281606165
-0.802553 -0.048066858 1.5294001 4278386949
-0.770145 -0.028577745 1.5123162 4279239171
-0.72936463 -0.024756143 1.5146817 4280622372
-0.018970069 -0.02392081 1.5374675 4281671957
0.02026277 -0.032081868 1.5460018 4282592280
-0.75833523 0.023640277 1.5067556 4279960581
-0.7341032 0.024529126 1.5178446 4280222987
-0.60670286 0.029163809 1.506 4281208331
-0.59522855 0.024382858 1.506 4280749069
-0.16655241 0.031206915 1.5224882 4279107842
-0.13562179 0.022029433 1.5071963 4278321409
-0.018785728 0.018572252 1.5358801 4280358157
0.010429289 0.022911647 1.5459272 4281935378
-0.76455498 0.069497034 1.5070369 4282399287
-0.73691243 0.073210686 1.5166582 4281805614
-0.60867858 0.09856429 1.5145 4279239691
-0.21155715 0.090180717 1.5060003 4278257154
-0.18411793 0.052579224 1.5165298 4278912002
0.0029447621 0.064784773 1.5460001 4278386949
-0.77102029 0.11794508 1.5065193 4279175697
-0.73262334 0.11908846 1.5122746 4281607717
-0.68861336 0.14032666 1.5190001 4279239174
-0.61566454 0.13815828 1.5164627 4279830277
-0.55994415 0.14583994 1.5443847 4279239171
-0.53608733 0.14485842 1.5340743 4280951068
-0.21944571 0.10183429 1.506 4279308809
-0.61905527 0.17085126 1.5210791 4279764740
-0.57905203 0.16077383 1.5405295 4279962117
-0.53194183 0.1614683 1.5447501 4280290825
-0.49134481 0.17597006 1.5409092 4278780161
-0.010306667 0.1634343 1.5460001 4278649089
-0.65384382 0.24282159 1.5066668 4278780417
-0.63278002 0.22133213 1.5078998 4279699202
-0.0044171433 0.24883239 1.5460001 4278255873
-0.65307814 0.28590095 1.506 4278583553
-0.6348148 0.26606002 1.5060003 4279633156
-0.0063803177 0.25275874 1.5460001 4278255873
0.048588578 0.29594859 1.5460001 4278255873
0.054478098 0.29545781 1.5460001 4278255873
-0.65549904 0.3231295 1.5072004 4278780417
-0.63993913 0.31996232 1.5130763 4279633155
0.045911517 0.32700247 1.5460002 4278255873
0.069302328 0.32006982 1.5458727 4278255873
-0.65727049 0.37761453 1.5070006 4278714881
-0.64639044 0.38949755 1.5105004 4279763719
-0.29671782 0.3809821 1.5060003 4278321666
-0.65505451 0.41917244 1.5169352 4279239171
-0.6475544 0.42577606 1.5155509 4279435779
-0.3117978 0.43044674 1.5076413 4278321409
-0.65555078 0.47825813 1.5118043 4279239172
-0.647892 0.46908525 1.5107245 4278780164
-0.35148531 0.4941569 1.524143 4278386945
-0.32632545 0.47423443 1.5131787 4278321409
-0.86159241 0.51397151 1.5220773 4279239425
-0.82540083 0.517515 1.5259993 4279108097
-0.77518409 0.52617258 1.5221272 4279502595
-0.72337091 0.52845049 1.5158056 4279371012
-0.66934788 0.52915549 1.5145084 4278911233
-0.36371475 0.5307135 1.5242052 4278255873
-0.34180263 0.51202774 1.512691 4278321409
-0.7054612 0.58157551 1.5100256 4278452483
-0.67863631 0.5763678 1.5162531 4278780162
-0.41617647 0.57804865 1.5075002 4278255873
-0.37763694 0.55555207 1.5184292 4278255873
-0.061212234 0.58913231 1.5277354 4278255873
-0.025938531 0.5900687 1.523396 4278321409
0.025676941 0.58211249 1.5275741 4278386945
0.074000098 0.56612456 1.5305477 4278518017
0.12535533 0.56907105 1.5263431 4278255873
0.15165524 0.5668667 1.5460001 4278255873
-0.71362621 0.62726605 1.5131721 4278649091
-0.68183571 0.62201244 1.5178525 4278845699
-0.071439527 0.60269386 1.5305001 4278255873
-0.71254182 0.66503537 1.51334 4278649090
-0.68768114 0.66889435 1.5303388 4278845698
-0.09791334 0.66993338 1.5460001 4278255873
-0.90639466 -0.62852776 1.5894444 4278387201
-0.87632418 -0.63289279 1.5808258 4278583810
-0.82386369 -0.63141298 1.5806229 4278518275
-0.77306229 -0.62431669 1.5736357 4278387202
-0.72465622 -0.61578393 1.5696486 4278518019
-0.67388374 -0.6119346 1.5777111 4278321411
-0.64505589 -0.61065084 1.5772262 4278255873
-0.5516848 -0.6019724 1.5530001 4278780162
-0.53778195 -0.60170102 1.5600001 4278321410
-0.46811643 -0.62904054 1.5774291 4279964183
-0.42463192 -0.61518639 1.5725417 4281015071
-0.38034287 -0.60171431 1.5600001 4281275929
-0.067262061 -0.61703676 1.5897783 4278714881
-0.026605083 -0.61660081 1.5810518 4279567361
0.0085431561 -0.61266625 1.5635693 4280026116
0.075880319 -0.60161942 1.5623335 4278452739
-0.87886065 -0.55320257 1.5616666 4282660661
-0.83833385 -0.55094433 1.5635 4281348418
-0.55749899 -0.59572345 1.570352 4278321409
-0.52474695 -0.59633273 1.5750003 4278255873
-0.4762632 -0.58804417 1.5745156 4278255873
-0.42125931 -0.58461046 1.5698897 4278321409
-0.37326166 -0.58087891 1.5667859 4278780932
-0.32641268 -0.57835573 1.5722191 4279174916
-0.27669808 -0.57404375 1.5820497 4279371780
-0.23541062 -0.56966001 1.5882636 4279372293
-0.1806616 -0.56787997 1.5953337 4280487171
-0.070382826 -0.57462251 1.5894301 4278911745
-0.024385734 -0.57522589 1.57882 4279829761
0.0098963017 -0.57468456 1.5635315 4280091649
0.072374523 -0.59416896 1.5626249 4278321409
-0.87359929 -0.52791274 1.5682077 4281017890
-0.8262254 -0.52534997 1.5776167 4281279773
-0.77453637 -0.52515799 1.5851483 4281411617
-0.73148584 -0.52138823 1.5910513 4280818977
-0.51381296 -0.50865883 1.5860494 4278649604
-0.48000455 -0.51049465 1.5934292 4278650118
-0.074072897 -0.52450788 1.5920749 4279042817
-0.025087064 -0.52442455 1.5754622 4279895298
0.0055932496 -0.52528739 1.559018 4279895042
-0.86592722 -0.47189748 1.5569241 4281479223
-0.82516032 -0.47532484 1.5594848 4282333247
-0.77472204 -0.47431192 1.5665712 4279174922
-0.72368115 -0.4733659 1.5768226 4279174411
-0.6937471 -0.46323776 1.5878224 4279175696
-0.51359087 -0.48154309 1.5923853 4278584068
-0.48944515 -0.48252398 1.5956115 4278716679
-0.10260001 -0.46284005 1.5960001 4278321409
-0.07578589 -0.47528297 1.5943942 4279239682
-0.024697531 -0.47535905 1.5745335 4280158209
0.0028211975 -0.47526982 1.5577424 4280288769
-0.87269694 -0.44285917 1.5582979 4278913806
-0.82363409 -0.44561702 1.5544853 4278847250
-0.78112155 -0.44583768 1.5598378 4278912776
-0.71433163 -0.44428942 1.5717214 4279502602
-0.6924625 -0.43574408 1.579868 4278977803
-0.10469028 -0.42068323 1.5931031 4278583809
-0.076115116 -0.42455563 1.592787 4279633409
-0.025411129 -0.42495206 1.5726311 4280420353
0.0026913579 -0.4236286 1.5579262 4280092417
0.12571906 -0.41265431 1.5530001 4279501569
-0.10545025 -0.37508452 1.5904353 4278911745
-0.075115897 -0.37751767 1.5927304 4280093186
-0.025572218 -0.37519139 1.570256 4280420865
0.001482381 -0.39728147 1.5565001 4279830785
-0.10758615 -0.32461902 1.5952538 4279961604
-0.071318716 -0.32641032 1.5931414 4280683779
-0.030406093 -0.32570717 1.5711707 4280945921
0.099096194 -0.32095337 1.5530001 4280616961
0.11420854 -0.3115114 1.5539501 4279698690
-0.11195892 -0.27477214 1.5951626 4279962885
-0.064492658 -0.27398473 1.5922997 4280881154
-0.031939857 -0.27552933 1.569681 4280880385
0.094711415 -0.26504561 1.5560234 4280355075
0.11036074 -0.27546665 1.556769 4279961346
-0.57237178 -0.2191138 1.5636415 4278649089
-0.52363104 -0.21077031 1.5555617 4278911745
-0.47520646 -0.21164079 1.5607139 4279372036
-0.42440623 -0.20887765 1.5736609 4279700230
-0.37797976 -0.2063181 1.5819604 4280554252
-0.3359814 -0.20447162 1.5882946 4280947983
-0.2810674 -0.20198499 1.5835334 4282329385
-0.11759341 -0.22283235 1.5951489 4279764484
-0.065517381 -0.22598331 1.5912828 4280815106
-0.034355368 -0.22586559 1.5698415 4281011969
0.087980911 -0.22327888 1.5580302 4280421892
0.10836144 -0.22468613 1.5587434 4279764993
-0.90136003 -0.16416001 1.5960001 4280031763
-0.87748641 -0.15937679 1.5864172 4280094989
-0.83718139 -0.15729816 1.587629 4280225801
-0.52232748 -0.19757935 1.5569375 4279896582
-0.46964353 -0.19748449 1.5733002 4278780679
-0.41988888 -0.19591998 1.5795505 4278846212
-0.36961529 -0.19210653 1.5875156 4279108357
-0.33016387 -0.19150084 1.5922899 4279372036
-0.27659902 -0.19593105 1.5907384 4281408784
-0.12154105 -0.17355707 1.5956817 4279567362
-0.066490047 -0.17435534 1.5919737 4280880897
-0.037429798 -0.17608829 1.5719111 4281012226
0.04595381 -0.15194239 1.5565001 4280748808
0.087263823 -0.19375524 1.5530002 4279503107
0.10501239 -0.16811842 1.5530001 4279240705
-0.90440005 -0.13224 1.596 4278649348
-0.87359649 -0.13665546 1.5855824 4279109645
-0.82460761 -0.13602825 1.5875298 4279372046
-0.78481936 -0.12796807 1.5943663 4279832850
-0.12774804 -0.1249349 1.5960006 4279304706
-0.067300372 -0.12611303 1.5905571 4280946177
-0.039244693 -0.12620194 1.5698291 4280880130
0.044873059 -0.12795846 1.5532918 4282461976
0.077516273 -0.12132495 1.5578032 4281079561
0.12527075 -0.1219529 1.5702636 4280029443
0.17406368 -0.11949285 1.582027 4278255873
0.21021765 -0.1152303 1.5947504 4278255873
-0.8057543 -0.065434635 1.5581821 4280229144
-0.77301151 -0.060477756 1.5707955 4279901204
-0.74229741 -0.05620743 1.5834001 4279110161
-0.13419427 -0.088811435 1.5960001 4278846466
-0.067480743 -0.074312888 1.5924222 4280815361
-0.042419434 -0.077929482 1.5696434 4280552705
0.045721862 -0.085720465 1.5530001 4282133008
0.076013163 -0.075921103 1.5607045 4280947206
0.12552993 -0.075483762 1.5730153 4279700738
0.17613071 -0.074851394 1.5905955 4278255873
0.21224618 -0.075422689 1.5959978 4278255873
-0.76808196 -0.049217146 1.5660002 4278518025
-0.73407447 -0.034244131 1.5713176 4280554777
-0.067726821 -0.025385965 1.590291 4280552449
-0.044249177 -0.02845623 1.5661002 4280027137
0.030121041 -0.017813561 1.5537376 4282328595
0.075582542 -0.025487052 1.5620848 4281012997
0.12578091 -0.025296537 1.5764279 4279569154
0.17509127 -0.025562011 1.5926369 4278321409
0.2087927 -0.020312723 1.5960006 4278255873
-0.73712689 0.022967415 1.5713519 4279962895
-0.064506531 0.0075706788 1.5902345 4279174913
-0.046399385 0.0084996633 1.5653528 4279305985
0.032538977 0.026275095 1.5566987 4281934604
0.074916735 0.025357112 1.5670723 4280946948
0.12468399 0.025573732 1.5789603 4279371778
0.17518672 0.025431348 1.5917068 4278321409
0.20691338 0.011005529 1.594065 4278255873
-0.75239998 0.098800004 1.5960001 4279702046
-0.74261272 0.08124169 1.5711963 4281213988
-0.0014790477 0.051766668 1.5530001 4278255874
0.026429927 0.075679518 1.5593872 4280882952
0.074441902 0.075343139 1.5698854 4281012483
0.12401543 0.075043313 1.5811371 4278977793
0.17171848 0.073497631 1.5872105 4278321409
-0.75239998 0.11552 1.5960001 4280226073
-0.74353528 0.10862709 1.5714002 4280948252
-0.60959309 0.14669447 1.5757623 4279240199
-0.58126575 0.14757608 1.553 4279371011
-0.0026800632 0.13616273 1.5641999 4278321410
0.025633659 0.12545995 1.5655651 4280751111
0.07533174 0.12501758 1.5745543 4281078274
0.12362168 0.12446374 1.5874759 4278649345
0.16559 0.12597129 1.5915685 4278321409
-0.61827129 0.17340599 1.5600002 4278583553
-0.5605405 0.1642043 1.5532695 4280027908
-0.52083796 0.16734414 1.5542232 4280093705
-0.47097778 0.17138568 1.5631338 4279897605
-0.42306671 0.17435783 1.5734773 4280225034
-0.37503392 0.1828776 1.584335 4279766532
-0.32551482 0.18650579 1.5902755 4279898117
-0.29726666 0.1895685 1.5947273 4279767555
-0.0072664418 0.17661735 1.5580125 4279897864
0.025416275 0.17477648 1.5684012 4280947975
0.075186938 0.1746577 1.5798208 4281012739
0.12110739 0.17328896 1.5946807 4278386945
0.16847658 0.1730087 1.5932605 4278255873
-0.28728002 0.20216 1.5960001 4278255873
-0.015723974 0.22637558 1.5601097 4278780930
0.025349183 0.21143492 1.5688337 4279436803
0.076106437 0.2121256 1.5848652 4279962113
0.11725111 0.21009773 1.5960006 4278321409
0.15714785 0.20540041 1.5947649 4278321409
-0.022098459 0.27742672 1.5611001 4278255873
0.018116478 0.2838144 1.5730778 4278255873
-0.66180795 0.31038404 1.5960001 4279568898
-0.64416486 0.31055495 1.556182 4279306503
-0.053478058 0.3343403 1.5576665 4278255873
-0.025518198 0.32531357 1.5626106 4278255873
0.024661787 0.32442772 1.5706726 4278255873
0.072604045 0.32959861 1.5572902 4278255873
0.10973927 0.34301484 1.5661601 4278255873
-0.061816763 0.38051325 1.5608366 4278649857
-0.025327004 0.37512118 1.5647894 4278583809
0.025298467 0.37477639 1.5734664 4278321409
0.076392129 0.37463114 1.5643055 4278780161
0.12394407 0.37663835 1.5730208 4278255873
0.15590474 0.38483334 1.5711672 4278255873
-0.067789413 0.42682835 1.5627146 4278649601
-0.025525954 0.42527887 1.5696728 4279043073
0.025708795 0.42486814 1.5727034 4278715655
0.075521939 0.42486551 1.5680801 4278782733
0.12575069 0.42503214 1.5781275 4278255873
0.15578769 0.42789888 1.5810628 4278255875
-0.58719718 0.49663335 1.585 4279108620
-0.071493037 0.47574323 1.5669836 4278649345
-0.02570224 0.47446576 1.5722003 4278977025
0.025385054 0.47420689 1.5718281 4278584323
0.074575081 0.47508955 1.5707271 4278519302
0.1253943 0.47415021 1.5855306 4278255873
0.15577386 0.47327477 1.589286 4278255874
-0.90543157 0.50964832 1.5942501 4278911489
-0.87477034 0.51305741 1.577774 4278977027
-0.82669973 0.51623744 1.5752519 4278583554
-0.77768642 0.51952916 1.5767496 4278780161
-0.74727428 0.52264142 1.5725 4278845697
-0.66040468 0.53143865 1.5712886 4278583809
-0.62643385 0.53493708 1.5798101 4279501829
-0.57917285 0.53999335 1.5851663 4280026886
-0.5341301 0.54387075 1.5884696 4279961606
-0.10214815 0.52773631 1.5928892 4278255873
-0.075467691 0.52512854 1.5703189 4278649345
-0.025135478 0.52535588 1.5805385 4278780417
0.025227491 0.52483165 1.5778391 4278846978
0.075453274 0.52530783 1.5774468 4278715137
0.12429627 0.52537102 1.5937535 4278255873
0.15325567 0.5118435 1.5960003 4278255873
-0.5807507 0.55159223 1.5814617 4278386947
-0.52767342 0.55398893 1.5936667 4278321411
-0.10207977 0.56732136 1.5802501 4278255873
-0.076294318 0.57258183 1.5701424 4278452737
-0.024371395 0.57709825 1.5823543 4278649089
0.01966629 0.56843656 1.5714632 4278846211
0.07675276 0.56055021 1.572324 4278911746
0.12450228 0.56416559 1.5818738 4278255873
0.15048002 0.56239998 1.5960001 4278255873
-0.10178191 0.63865364 1.5716667 4278255873
-0.085737176 0.62720263 1.5733445 4278255873
-0.1004362 0.69705719 1.5740001 4278255873
-0.076241583 0.67647058 1.5814047 4278255873
-0.046205297 0.68932563 1.5854801 4278255873
-0.91520894 0.71355557 1.596 4280293911
-0.1004362 0.7000553 1.5740001 4278255873
-0.07384339 0.70162821 1.5802965 4278255873
-0.041656666 0.70485502 1.5907502 4278255873
-0.40108001 -0.65194857 1.626 4283060055
-0.3743808 -0.65255487 1.6314001 4283584072
-0.32437697 -0.65473527 1.6476973 4283518541
-0.26881316 -0.65410334 1.649 4282860859
-0.24970572 -0.65488857 1.649 4281810994
-0.097893022 -0.6569826 1.649 4278387201
-0.9158473 -0.63393176 1.6277071 4278518529
-0.87464529 -0.63321745 1.6244336 4278715142
-0.82493865 -0.62831491 1.6215603 4278453252
-0.77409863 -0.62261361 1.6274675 4278452996
-0.72541308 -0.61829454 1.6264747 4278452483
-0.68308103 -0.61186498 1.624903 4278255874
-0.5736323 -0.6025359 1.6342223 4278518017
-0.51354575 -0.6014924 1.649 4278255873
-0.45494169 -0.63825363 1.6039414 4282531892
-0.4205938 -0.63932639 1.6152006 4283057732
-0.37223724 -0.63589835 1.6307412 4282991173
-0.32527474 -0.63248152 1.6434224 4282663230
-0.27766138 -0.62695044 1.6476027 4282530094
-0.23295397 -0.60986829 1.649 4280884490
-0.10347692 -0.62068713 1.649 4278387458
-0.093296111 -0.62795597 1.6251302 4278387201
-0.56106448 -0.59871465 1.6290666 4278255873
-0.52614576 -0.59433138 1.6245676 4278255873
-0.47022343 -0.58944994 1.629428 4278255873
-0.42666006 -0.58537394 1.6275291 4278255873
-0.37418109 -0.57961488 1.6311631 4278255873
-0.32566023 -0.57329208 1.6293426 4278255873
-0.27597982 -0.568066 1.6291986 4278255873
-0.21994719 -0.56600106 1.622708 4278649602
-0.17560761 -0.56362134 1.6205508 4279043587
-0.12386826 -0.56364214 1.6290205 4279174660
-0.095346987 -0.57473642 1.6095201 4278977537
-0.75264663 -0.52059329 1.603 4280751121
-0.71264613 -0.5204286 1.6187208 4279504142
-0.46265432 -0.50864601 1.6075637 4278255881
-0.42927942 -0.50942039 1.6184534 4278386951
-0.37626159 -0.50543255 1.6300834 4278584069
-0.32726443 -0.50350857 1.6473444 4279437062
-0.29996097 -0.50412291 1.649 4278583553
-0.10662851 -0.52641475 1.6274464 4278255873
-0.084874429 -0.52742213 1.6046845 4278518017
-0.70363355 -0.49445084 1.6190834 4278649603
-0.67933643 -0.46946976 1.6064395 4278584067
-0.6014924 -0.45072666 1.649 4280487458
-0.57160324 -0.45817938 1.6419747 4282530369
-0.52226281 -0.46519515 1.6227926 4279832337
-0.47090003 -0.47353914 1.6165649 4278452745
-0.42467579 -0.47546366 1.6258817 4278321674
-0.37559107 -0.47479498 1.6379111 4279242256
-0.33128846 -0.47936007 1.6470135 4281215003
-0.29472601 -0.46454689 1.649 4284307263
-0.11053628 -0.47141147 1.6217495 4278255873
-0.068422429 -0.46327391 1.6030003 4278518273
-0.67669678 -0.42854258 1.6060568 4278912260
-0.60445255 -0.41806117 1.6436664 4280752924
-0.58534724 -0.42495966 1.6445349 4282200628
-0.11625377 -0.43078908 1.628745 4278386945
-0.072516672 -0.4368175 1.6030002 4278977025
-0.60530597 -0.36460033 1.6451479 4280815896
-0.58427256 -0.3782984 1.6465309 4282593341
-0.12159333 -0.37506101 1.6251585 4278583553
-0.081829347 -0.36749911 1.6029997 4279108353
-0.60587651 -0.33154964 1.6459994 4279108363
-0.59595835 -0.33525926 1.6489999 4279372314
-0.12442754 -0.32310444 1.6221706 4279371274
-0.086526297 -0.32237822 1.6045043 4279633665
-0.61719722 -0.27326289 1.649 4281211948
-0.1271466 -0.27358207 1.6195432 4279503374
-0.08875066 -0.27765119 1.6092074 4280224257
-0.15021142 -0.20286287 1.626 4278321667
-0.12302818 -0.22514847 1.6181595 4279831050
-0.089920714 -0.22495888 1.6086551 4279830529
-0.90989333 -0.16640668 1.603 4279965194
-0.86758012 -0.16744439 1.6051334 4280818189
-0.82046336 -0.1565998 1.624166 4280160521
-0.7823208 -0.15480377 1.6372951 4280094985
-0.38555035 -0.18787816 1.6136 4279765251
-0.31283012 -0.18667287 1.6186389 4278912258
-0.27254567 -0.18612957 1.6079993 4279438083
-0.22520526 -0.18422763 1.616652 4279898885
-0.17377524 -0.18121505 1.63284 4279831562
-0.12451236 -0.17539498 1.6138673 4279830791
-0.090290293 -0.17728533 1.6089275 4280224513
-0.91358471 -0.11280345 1.6208684 4278782480
-0.87237167 -0.11188779 1.6170944 4279307031
-0.82572943 -0.11807123 1.6231205 4280030487
-0.77085412 -0.12584972 1.6189655 4280028688
-0.72835916 -0.1217564 1.6220601 4279436551
-0.15235299 -0.11586468 1.646091 4278649090
-0.12194449 -0.12516275 1.614502 4279765252
-0.092059024 -0.12312625 1.6086378 4280552193
0.22014534 -0.10778268 1.603 4278255873
-0.91307127 -0.088010289 1.628536 4279438868
-0.8746466 -0.086249724 1.6313084 4279767582
-0.83216542 -0.08479014 1.6384541 4281149482
-0.779199 -0.071589388 1.6385715 4280161035
-0.73407316 -0.058165148 1.6200423 4278978313
-0.63946384 -0.079359047 1.6336666 4280487693
-0.15423243 -0.069647141 1.6322142 4278976769
-0.12361997 -0.073198818 1.6123577 4280093444
-0.091601856 -0.077381335 1.6080103 4280749826
-0.75247735 -0.013816919 1.6305292 4279832590
-0.74376178 -0.031819526 1.6203234 4279504907
-0.15976399 -0.021271653 1.6271523 4279501057
-0.12567292 -0.024800418 1.616016 4280289796
-0.092522159 -0.022876816 1.6073072 4280814849
0.19151184 -0.0079725925 1.6029999 4278386945
0.21197182 -0.033077776 1.6030004 4278255873
-0.75863016 0.019745057 1.6345172 4279700497
-0.74879456 0.0066282544 1.6056668 4280225559
-0.15547715 0.0015704762 1.649 4278518017
-0.12125748 0.0040306184 1.6259496 4278452481
-0.087200888 0.0083171437 1.6118277 4278518529
0.1845879 0.027757574 1.6030003 4278255873
0.2061 0.016793335 1.603 4278255873
-0.7585389 0.072392374 1.6299613 4279504400
-0.74959332 0.085493334 1.603 4280355869
-0.41044569 0.097008027 1.6467144 4280163094
-0.37772068 0.098144487 1.6480589 4284308579
-0.75682086 0.11916726 1.6206486 4279372813
-0.74399549 0.13383777 1.603 4278518273
-0.63224226 0.14441296 1.6365 4278977800
-0.41511425 0.12813461 1.6441503 4279637017
-0.37516403 0.12497672 1.6422807 4282464819
-0.33517092 0.12441272 1.6477597 4281410847
0.14808667 0.13282 1.603 4278386945
0.16478254 0.12132129 1.6029999 4278321409
-0.46665111 0.16131778 1.603 4280424231
-0.41511405 0.16167608 1.6422055 4279503112
-0.37478083 0.1645004 1.6420013 4281867029
-0.33501816 0.17096485 1.6352977 4281734411
-0.2786853 0.18884458 1.6127895 4279568899
0.13940875 0.18279822 1.6029993 4278321409
0.15966387 0.17362654 1.6029984 4278321409
-0.27086666 0.20570245 1.6085759 4278255873
0.13158411 0.22287042 1.6034881 4278255873
0.15789433 0.22160873 1.6104194 4278321409
-0.91430014 0.27810398 1.6302567 4280161555
-0.88912213 0.28377455 1.6400269 4279108615
-0.80813503 0.28529033 1.6430393 4278518275
-0.78055549 0.28969803 1.6444422 4278452483
-0.74852765 0.29723239 1.6340001 4278255874
-0.66588002 0.29918572 1.6110001 4279372801
-0.91743821 0.32327193 1.6288284 4281541399
-0.8091343 0.32484353 1.6369895 4278321410
-0.78032339 0.32333755 1.6444942 4278452739
-0.74749017 0.30241969 1.6340002 4278255873
-0.66779786 0.3049393 1.6110001 4279634443
-0.92198187 0.37373301 1.6328102 4281143822
-0.81370902 0.3724179 1.63735 4278321409
-0.78250724 0.37635824 1.6413786 4278452481
-0.9264226 0.42225182 1.6364806 4280880642
-0.81939507 0.41839913 1.6479545 4278386946
-0.78242654 0.42108709 1.644266 4278321409
-0.93540531 0.48452201 1.6431252 4279895042
-0.81882936 0.47755504 1.6432605 4278649604
-0.78494042 0.47444025 1.6436244 4278321409
-0.91784334 0.50799805 1.6347816 4278518273
-0.87765944 0.51370454 1.6299232 4278518017
-0.82482845 0.51229537 1.633309 4278649089
-0.78445941 0.51495737 1.627378 4278452482
-0.66917002 0.5237937 1.6208676 4278452481
-0.62750155 0.52917802 1.6268984 4279174150
-0.57568574 0.53176492 1.6215588 4279436035
-0.52394032 0.53891915 1.6219374 4279304964
-0.48587146 0.54580718 1.6233213 4279764994
-0.43255526 0.54704899 1.6367496 4278977026
-0.10839333 0.52364671 1.603 4278255873
0.16209729 0.52409947 1.6238501 4278255873
-0.91462278 0.59738129 1.6463333 4278387464
-0.51114643 0.55507743 1.6069617 4279042562
-0.4711656 0.5561673 1.6242527 4279502594
-0.42310637 0.56107861 1.6371648 4279305219
-0.39733049 0.55751908 1.649 4278321411
0.14656001 0.55723333 1.603 4278255873
0.15114 0.5602867 1.603 4278255873
-0.92433274 0.6207388 1.6421225 4278781446
-0.93007404 0.68007034 1.6427891 4279307017
-0.91789889 0.71510601 1.6292719 4279305987
-0.87902623 0.72515696 1.6298646 4279634436
-0.82095909 0.7246021 1.6318272 4279830790
-0.79468733 0.72027326 1.6214838 4279173890
-0.95249718 -0.65170854 1.6980001 4278256388
-0.94764572 -0.65170854 1.6980001 4278323463
-0.30141619 -0.66122192 1.6570001 4283052325
-0.27913392 -0.65729517 1.6575334 4282860854
-0.23077767 -0.6606226 1.6759356 4282991149
-0.16675347 -0.66205585 1.6883125 4279832321
-0.12862974 -0.66060233 1.6784489 4278649869
-0.96099603 -0.63385898 1.6931082 4278781701
-0.92543352 -0.64192277 1.6842175 4278846729
-0.87525207 -0.63430727 1.6784177 4278715914
-0.8276847 -0.63007051 1.6801585 4278715911
-0.77277303 -0.62123811 1.6801389 4278780679
-0.72873211 -0.61921459 1.6813592 4278452481
-0.68729734 -0.61170089 1.6638151 4278255873
-0.60068667 -0.60706002 1.6730001 4278386945
-0.5774135 -0.60203797 1.6750413 4278386945
-0.30615047 -0.62966007 1.6569999 4282335032
-0.26667708 -0.63284707 1.6605545 4282071343
-0.23595224 -0.63350981 1.6751999 4281546279
-0.16603443 -0.62867147 1.6895365 4280160770
-0.12839372 -0.62470418 1.6770525 4278649869
-0.099420004 -0.62019145 1.6570001 4278321665
-0.57282752 -0.59710205 1.6766845 4278321409
-0.52395672 -0.59400129 1.6756901 4278321409
-0.47859791 -0.58913982 1.6773144 4278255873
-0.42468578 -0.58397615 1.6776662 4278255873
-0.37668514 -0.57784504 1.6755118 4278255873
-0.32398406 -0.57175213 1.6775757 4278255873
-0.27205473 -0.56680316 1.6765604 4278255873
-0.22879115 -0.5624311 1.6804886 4278256129
-0.17283867 -0.56004643 1.6787339 4278452481
-0.13228901 -0.56757689 1.6727946 4278714883
-0.71702665 -0.51799262 1.6620001 4278649858
-0.30423525 -0.50200176 1.6586001 4279503622
-0.28868631 -0.50322956 1.6612668 4278845698
-0.12090319 -0.52601403 1.6744459 4278255873
-0.60362142 -0.45606953 1.6570001 4280685863
-0.55706763 -0.45866871 1.6569997 4282728000
-0.52660239 -0.4564119 1.6615379 4283058251
-0.47558755 -0.45616356 1.6702403 4281937713
-0.42716524 -0.45381582 1.6776659 4280424984
-0.37458503 -0.45248985 1.6704876 4279306504
-0.31728035 -0.46807054 1.6582615 4280821020
-0.27440122 -0.47604847 1.6630794 4280031505
-0.24832287 -0.48300856 1.6650002 4278256131
-0.12169921 -0.48309055 1.6742311 4278255873
-0.61459053 -0.42271873 1.6603335 4280096017
-0.56213349 -0.42536524 1.6582553 4282793800
-0.52517927 -0.42605293 1.6679419 4283056710
-0.4773649 -0.42752773 1.6877531 4283517775
-0.44422278 -0.43697357 1.6974145 4283585362
-0.36988258 -0.44761139 1.6794 4280421644
-0.32371277 -0.44333127 1.6766822 4279175693
-0.27757767 -0.44147211 1.6740237 4278518793
-0.24790001 -0.44770002 1.6650001 4278322186
-0.1322023 -0.42883027 1.6759722 4278518017
-0.61070704 -0.3816455 1.6606368 4280160542
-0.57041556 -0.37314197 1.66465 4281872191
-0.52479422 -0.37533382 1.673002 4282397759
-0.48536119 -0.37708935 1.6899068 4282202182
-0.13923945 -0.36434674 1.6772501 4278518020
-0.61320025 -0.31533155 1.6604285 4279436812
-0.57448763 -0.3242465 1.6658205 4280160551
-0.52476811 -0.32467911 1.6766996 4279766809
-0.48960274 -0.32173592 1.6913896 4279176221
-0.15219012 -0.31052688 1.6964 4278387203
-0.14256644 -0.32670122 1.6799301 4278584068
-0.6112327 -0.27881721 1.6643668 4281609264
-0.57464606 -0.27536061 1.6696799 4282332482
-0.5258643 -0.27496892 1.6846752 4281741364
-0.49067655 -0.27744728 1.6956302 4281806385
-0.15686287 -0.25712574 1.6980001 4278452737
-0.1468337 -0.26619792 1.6578 4278583811
-0.51916277 -0.2464314 1.6903603 4280950566
-0.49646288 -0.24418858 1.6980001 4281411637
-0.15434393 -0.23115334 1.6799334 4278321924
-0.14816561 -0.24004585 1.6569998 4278584066
-0.76496166 -0.15718706 1.6575712 4280425745
-0.16587672 -0.16306315 1.6733125 4278452481
-0.81615245 -0.10502338 1.67671 4280163355
-0.77839631 -0.1107 1.658846 4279702549
-0.16281864 -0.11976827 1.6744567 4278452482
-0.81710958 -0.087171845 1.6723671 4280886054
-0.7681275 -0.084951058 1.6647191 4281148965
-0.74383056 -0.077513874 1.6740999 4278780677
-0.65226275 -0.087266065 1.6715457 4280160013
-0.62547749 -0.072909296 1.6759146 4280753956
-0.57897025 -0.066975072 1.6948757 4283056959
-0.52757037 -0.072562419 1.6973146 4283583566
-0.49825969 -0.062349841 1.6980001 4279108868
-0.16683276 -0.086946361 1.6802884 4278714626
-0.75529361 -0.016892167 1.670097 4278518277
-0.74324918 -0.030646386 1.6684706 4278321410
-0.65369761 -0.02434429 1.6782058 4280291861
-0.6235624 -0.025348689 1.6797462 4281214763
-0.5781334 -0.024248797 1.6961025 4282596668
-0.54623491 -0.018866669 1.6980001 4282262849
-0.17121507 -0.013398255 1.6748333 4279697665
-0.7631219 0.026125221 1.6824683 4278518275
-0.74602789 0.032014586 1.6845909 4278386945
-0.65401286 0.03038306 1.6740528 4280292120
-0.62808383 0.024731942 1.690904 4280688682
-0.58228981 0.020444373 1.6979989 4281018154
-0.5390712 0.028757012 1.6980003 4283912534
-0.16903579 0.0045335717 1.6765833 4279107841
-0.76343745 0.07614278 1.681993 4278452482
-0.74491841 0.059984922 1.6796666 4278321410
-0.66176718 0.077023141 1.686596 4280752413
-0.62642741 0.074599206 1.6930116 4280819751
-0.58504063 0.069797963 1.6979989 4281741363
-0.53527433 0.050131429 1.6980001 4283910462
-0.40984687 0.094506487 1.6708 4280228128
-0.38169238 0.097389929 1.6727142 4283781196
-0.34568572 0.0999 1.6650001 4284504651
-0.76645839 0.11880804 1.6815763 4278386947
-0.66190797 0.12321389 1.687122 4279240206
-0.63394994 0.11928867 1.6931534 4279503123
-0.59701973 0.14274964 1.6980001 4282267455
-0.43207791 0.12714805 1.662909 4278913301
-0.31818241 0.12529075 1.6619335 4280883734
-0.27610344 0.12790038 1.6679616 4280294165
-0.24855904 0.12982877 1.6666 4280097305
-0.65806574 0.15307523 1.6570001 4278977281
-0.63877141 0.15201144 1.6980001 4278518787
-0.56883526 0.16367048 1.6960001 4281213217
-0.4339762 0.15938763 1.6570001 4278649858
-0.35822761 0.15623143 1.6570001 4284105515
-0.31719241 0.16578181 1.663416 4282850321
-0.27844799 0.16657415 1.6677194 4279240452
-0.95800239 0.25574842 1.6925001 4279962631
-0.91981947 0.26358473 1.6767257 4279241231
-0.88520181 0.28700155 1.6681731 4278453251
-0.81309539 0.27210566 1.6708236 4279109892
-0.77495086 0.27943894 1.6661183 4278714630
-0.67495096 0.29037672 1.6775253 4279108873
-0.91362083 0.32739633 1.6677352 4279831819
-0.88488573 0.32510507 1.6684107 4278518276
-0.82692194 0.34718096 1.6570001 4278255873
-0.78164369 0.3327831 1.6572005 4278386945
-0.67898917 0.32584131 1.6926885 4280425503
-0.92488903 0.37453899 1.6817003 4279305219
-0.8818208 0.37514067 1.6740563 4278518017
-0.8348124 0.3824251 1.6570001 4278255876
-0.77424854 0.36474741 1.6642824 4278452481
-0.70150059 0.37581372 1.6964 4278914310
-0.68402523 0.37386799 1.6937498 4280754213
-0.30897146 0.36669445 1.6932001 4278321411
-0.92919236 0.42517301 1.6739684 4279962884
-0.87200952 0.42365956 1.6780351 4278321410
-0.82359922 0.43498209 1.6585312 4278386945
-0.78957361 0.42906654 1.6569998 4278386946
-0.70083773 0.43678212 1.6948 4279241992
-0.68799412 0.4234347 1.6935271 4281213733
-0.941625 0.47618654 1.6746117 4279371522
-0.86981809 0.47487712 1.679058 4278452484
-0.82228345 0.46886039 1.6585228 4278518788
-0.78825861 0.46427566 1.6569998 4278255873
-0.70193714 0.4627544 1.6969334 4278914311
-0.69188762 0.47079921 1.6890293 4279571479
-0.92124355 0.50614387 1.6753924 4278583810
-0.87602502 0.50959945 1.6657312 4278649090
-0.84393024 0.50902343 1.6569998 4278780162
-0.78831106 0.51782411 1.6576666 4278386945
-0.70628923 0.51628703 1.6948217 4278321667
-0.66676933 0.52262682 1.6824397 4278583811
-0.62622309 0.52965093 1.6735504 4279371524
-0.57708657 0.53503633 1.6777213 4278977027
-0.52283752 0.53975666 1.6756227 4278780161
-0.48743185 0.54597622 1.677653 4278977539
-0.42953727 0.54765654 1.6695716 4278583553
-0.92130238 0.59797204 1.6605555 4278387211
